ply
format ascii 1.0
element vertex 1590
property float32 x
property float32 y
property float32 z
property float32 I
end_header
-7.3053 -11.0441 1.4219 0.9481
-1.8611 -5.6673 0.6405 0.9763
0.7565 -19.4827 2.0937 0.9246
7.8656 -18.8702 2.1953 0.9210
9.8296 -18.6999 2.2685 0.9185
14.2721 -18.3131 2.4932 0.9108
16.8832 -18.0850 2.6567 0.9053
6.9457 -6.2250 1.0015 0.9632
7.7231 -4.7635 0.9744 0.9642
9.2370 -4.6185 1.1089 0.9593
16.2492 -6.3887 1.8749 0.9322
14.7464 -4.3297 1.6503 0.9400
15.5790 1.1008 1.6771 0.9391
16.1079 5.6550 1.8332 0.9336
15.5881 7.0861 1.8386 0.9334
13.7101 7.7715 1.6923 0.9386
10.8183 7.4763 1.4121 0.9485
5.8600 6.9715 0.9779 0.9640
3.0839 6.6905 0.7911 0.9708
1.6997 6.5512 0.7268 0.9731
0.4883 6.4300 0.6925 0.9744
-8.7249 -2.1007 0.7597 0.9646
-8.6032 -3.7836 0.7956 0.9630
-8.5118 -4.6872 0.8226 0.9617
-8.3961 -5.6508 0.8567 0.9602
-6.7818 -6.5819 0.8000 0.9628
-7.5727 -10.5562 1.0997 0.9492
-1.5380 -5.6411 0.4949 0.9768
-1.0010 -5.5914 0.4808 0.9775
-0.4898 -5.5439 0.4711 0.9779
5.2472 -19.1080 1.6774 0.9235
15.7420 -18.1986 2.0369 0.9079
6.8161 -5.5074 0.7418 0.9654
7.1898 -4.8199 0.7327 0.9658
8.5537 -4.6901 0.8258 0.9616
14.4075 -6.3049 1.3313 0.9388
14.1892 -4.7569 1.2669 0.9417
13.9368 -2.0411 1.1924 0.9450
13.8859 -0.7838 1.1773 0.9457
13.9187 1.7019 1.1870 0.9453
14.0044 2.9952 1.2123 0.9441
14.1424 4.3706 1.2530 0.9423
13.8231 7.1577 1.3177 0.9394
9.5358 7.3375 1.0185 0.9528
4.2544 6.8034 0.6793 0.9683
3.4112 6.7185 0.6378 0.9702
2.6593 6.6429 0.6057 0.9717
1.9743 6.5742 0.5811 0.9728
0.7365 6.4505 0.5496 0.9743
0.1577 6.3928 0.5413 0.9747
-1.5393 6.2244 0.5428 0.9746
-2.1223 6.1668 0.5521 0.9742
-2.7307 6.1069 0.5663 0.9735
-7.5758 5.3643 0.7858 0.9634
-8.5624 4.9836 0.8387 0.9610
-8.5810 4.0195 0.8021 0.9627
-8.7129 2.3179 0.7632 0.9645
-8.7738 0.7205 0.7452 0.9653
-8.7804 -0.0622 0.7433 0.9654
-8.7714 -0.8456 0.7459 0.9652
-8.7465 -1.6381 0.7533 0.9649
-8.6460 -3.2860 0.7830 0.9636
-8.5670 -4.1619 0.8063 0.9625
-8.4658 -5.0891 0.8361 0.9611
-8.3384 -6.0834 0.8737 0.9594
-6.8752 -6.0216 0.7737 0.9640
-6.7536 -7.0707 0.8277 0.9615
-7.4340 -11.2387 1.1407 0.9473
-6.8602 -15.9435 1.4693 0.9327
-1.3056 -5.6196 0.4884 0.9771
0.7569 -19.4938 1.6515 0.9247
4.2295 -19.1957 1.6639 0.9241
6.0137 -19.0419 1.6904 0.9230
7.8704 -18.8816 1.7317 0.9212
9.8357 -18.7115 1.7895 0.9186
11.9539 -18.5278 1.8666 0.9153
14.2818 -18.3256 1.9668 0.9110
16.1437 -17.2929 2.0026 0.9094
6.8837 -6.1694 0.7825 0.9636
6.7705 -5.0589 0.7155 0.9666
7.7311 -4.7684 0.7689 0.9642
9.2479 -4.6239 0.8752 0.9593
14.3057 -5.6246 1.3012 0.9402
14.1166 -4.1446 1.2454 0.9426
13.9095 -1.5013 1.1843 0.9454
13.8779 -0.2566 1.1750 0.9458
13.9492 2.2450 1.1960 0.9449
14.0563 3.5682 1.2276 0.9434
14.4492 6.5684 1.3436 0.9383
7.1313 7.0940 0.8515 0.9604
5.8545 6.9649 0.7702 0.9641
3.8823 6.7659 0.6603 0.9692
2.3607 6.6130 0.5944 0.9722
0.4879 6.4257 0.5455 0.9745
-7.4805 -6.0667 0.5972 0.9621
-29.4618 -34.1849 2.7984 0.8346
-1.5390 -5.6448 0.3628 0.9768
-1.0016 -5.5950 0.3524 0.9775
0.0050 -5.5013 0.3411 0.9782
11.0372 -18.6197 1.3422 0.9169
13.2697 -18.4266 1.4081 0.9130
14.3597 -16.6003 1.3611 0.9158
13.9838 -13.5223 1.2063 0.9250
7.1969 -4.8246 0.5373 0.9659
8.5632 -4.6952 0.6056 0.9616
12.5649 -1.8402 0.7875 0.9504
12.5346 -0.7075 0.7785 0.9509
12.5310 0.4092 0.7775 0.9510
12.6867 3.9207 0.8234 0.9482
12.8039 5.2446 0.8580 0.9461
12.9641 6.7129 0.9053 0.9432
11.8883 7.5667 0.8738 0.9451
7.7543 7.1500 0.6541 0.9586
6.3607 7.0098 0.5869 0.9628
5.2183 6.8949 0.5362 0.9659
2.6573 6.6380 0.4434 0.9718
1.9730 6.5695 0.4253 0.9729
1.3373 6.5060 0.4119 0.9737
0.7360 6.4461 0.4023 0.9743
0.1576 6.3885 0.3963 0.9747
-1.5382 6.2203 0.3973 0.9746
-2.1209 6.1626 0.4041 0.9742
-3.3741 6.0390 0.4290 0.9727
-4.0718 5.9703 0.4481 0.9715
-6.7102 5.7114 0.5464 0.9653
-9.1710 4.2959 0.6280 0.9602
-9.2342 3.3606 0.6093 0.9614
-6.6914 -7.0057 0.6007 0.9619
-7.8356 -14.5023 1.0221 0.9361
-7.3773 -17.1453 1.1574 0.9279
-1.8636 -5.6750 0.3704 0.9763
-1.3064 -5.6233 0.3580 0.9771
-0.7813 -5.5745 0.3490 0.9777
2.4881 -19.3565 1.2102 0.9248
6.0171 -19.0530 1.2390 0.9230
7.8750 -18.8929 1.2693 0.9212
9.8418 -18.7231 1.3117 0.9187
14.2994 -15.3173 1.2994 0.9195
6.7159 -5.0181 0.5199 0.9670
7.7390 -4.7733 0.5638 0.9642
12.6715 -3.7204 0.8189 0.9484
12.5298 -0.2317 0.7771 0.9510
12.5723 2.0233 0.7896 0.9502
12.6359 3.2076 0.8084 0.9491
12.7319 4.4698 0.8367 0.9474
12.8663 5.8488 0.8764 0.9449
8.7136 7.2466 0.7028 0.9556
7.1239 7.0865 0.6231 0.9605
5.8489 6.9583 0.5637 0.9642
4.7885 6.8517 0.5183 0.9671
3.8792 6.7604 0.4833 0.9692
1.6973 6.5420 0.4191 0.9733
0.4876 6.4214 0.3993 0.9745
-7.4865 -6.0715 0.3801 0.9621
-6.6624 -6.4660 0.3661 0.9635
-15.4324 -21.5121 1.0439 0.8994
-12.5488 -21.2578 0.9734 0.9059
-7.4715 -20.1420 0.8471 0.9176
-1.5401 -5.6486 0.2308 0.9768
3.4882 -19.2818 0.7726 0.9246
7.0773 -18.9732 0.7985 0.9221
12.1470 -16.8507 0.8222 0.9202
12.1561 -11.7548 0.6668 0.9345
8.5726 -4.7004 0.3855 0.9616
11.5202 -3.8621 0.4791 0.9525
11.4418 -1.6757 0.4560 0.9548
11.4258 -0.6449 0.4512 0.9552
11.4239 0.3731 0.4507 0.9553
11.4361 1.3984 0.4543 0.9549
11.4630 2.4516 0.4622 0.9542
11.5057 3.5557 0.4748 0.9529
11.6495 6.0321 0.5173 0.9488
11.1194 7.0774 0.5197 0.9486
9.5120 7.3191 0.4732 0.9531
7.7459 7.1422 0.4154 0.9587
4.2473 6.7921 0.3159 0.9684
1.9715 6.5649 0.2703 0.9729
1.3364 6.5016 0.2617 0.9738
-0.4079 6.3281 0.2500 0.9749
-0.9698 6.2724 0.2503 0.9749
-1.5372 6.2161 0.2525 0.9747
-2.1195 6.1585 0.2568 0.9743
-4.8373 5.8900 0.3005 0.9699
-5.7034 5.8046 0.3209 0.9679
-8.9338 5.1998 0.4076 0.9595
-11.9465 5.5961 0.5202 0.9486
-15.8310 5.7616 0.6643 0.9348
-10.7275 -6.4486 0.4935 0.9511
-8.4081 -6.1341 0.4104 0.9592
-6.8856 -6.0307 0.3609 0.9640
-1.8649 -5.6788 0.2357 0.9764
-0.7818 -5.5780 0.2221 0.9777
-0.2780 -5.5312 0.2184 0.9781
11.9693 -18.5517 0.8706 0.9154
12.6452 -16.2255 0.8111 0.9210
12.3061 -13.1821 0.7111 0.9304
6.7636 -6.0618 0.3581 0.9643
6.6624 -4.9781 0.3279 0.9673
7.7469 -4.7782 0.3589 0.9642
11.5557 -4.5434 0.4896 0.9515
11.4978 -3.3757 0.4725 0.9532
11.4577 -2.2814 0.4607 0.9543
11.4232 -0.2112 0.4505 0.9553
11.4274 0.8075 0.4517 0.9552
11.4457 1.8421 0.4571 0.9547
11.5293 4.0476 0.4818 0.9523
11.5991 5.2727 0.5024 0.9503
10.7739 7.4457 0.5164 0.9489
4.7843 6.8457 0.3293 0.9671
3.8760 6.7550 0.3071 0.9693
1.6961 6.5374 0.2663 0.9733
-9.4354 -6.3501 0.1921 0.9555
-7.4924 -6.0763 0.1629 0.9621
-6.6044 -6.4097 0.1555 0.9639
-12.1211 -20.5334 0.4028 0.9090
-9.6783 -20.3339 0.3804 0.9138
0.0050 -5.5081 0.0930 0.9782
1.7534 -19.4418 0.3298 0.9249
3.4902 -19.2928 0.3312 0.9246
5.2563 -19.1412 0.3353 0.9237
7.0815 -18.9844 0.3423 0.9221
10.9714 -15.2350 0.3171 0.9276
10.8457 -12.5382 0.2800 0.9358
7.2110 -4.8341 0.1466 0.9659
10.5327 -3.5310 0.1876 0.9565
10.5157 -2.5115 0.1826 0.9577
10.4987 -0.5926 0.1776 0.9588
5.5532 0.1813 0.0939 0.9780
10.5025 1.2842 0.1787 0.9586
10.5493 4.3211 0.1926 0.9554
10.2220 6.5061 0.2047 0.9527
7.7373 7.1344 0.1778 0.9588
6.3482 6.9960 0.1596 0.9629
5.2090 6.8825 0.1458 0.9661
3.4031 6.7027 0.1270 0.9704
2.6533 6.6282 0.1206 0.9718
1.9702 6.5602 0.1157 0.9730
-0.9691 6.2682 0.1071 0.9749
-4.8335 5.8854 0.1286 0.9700
-6.6979 5.7009 0.1486 0.9654
-9.1313 5.3146 0.1785 0.9586
-11.9335 5.5900 0.2226 0.9486
-8.4152 -6.1393 0.1759 0.9592
-11.0469 -20.4457 0.3925 0.9112
-0.7823 -5.5816 0.0952 0.9777
0.7582 -19.5271 0.3301 0.9248
2.4909 -19.3785 0.3300 0.9248
7.8845 -18.9155 0.3462 0.9213
10.9129 -14.0028 0.2999 0.9314
10.8029 -11.5719 0.2674 0.9386
7.7549 -4.7831 0.1539 0.9642
9.2804 -4.6402 0.1753 0.9593
10.5014 -1.1334 0.1784 0.9586
10.4993 0.7419 0.1778 0.9588
10.5059 1.6908 0.1797 0.9583
10.5179 2.6700 0.1833 0.9575
10.5359 3.6989 0.1886 0.9563
10.5939 6.0051 0.2057 0.9525
10.0582 6.9511 0.2065 0.9523
7.1090 7.0718 0.1694 0.9607
3.0745 6.6700 0.1241 0.9710
2.3555 6.5985 0.1183 0.9724
1.6949 6.5328 0.1140 0.9734
-11.9116 -6.5593 -0.0766 0.9471
-9.4458 -6.3571 -0.0641 0.9555
-7.4983 -6.0811 -0.0544 0.9621
-6.5475 -6.3545 -0.0514 0.9642
-15.4563 -21.5455 -0.1493 0.8994
-12.1292 -20.5471 -0.1343 0.9090
-7.4805 -20.1662 -0.1211 0.9176
-1.5421 -5.6560 -0.0330 0.9768
-1.0036 -5.6057 -0.0321 0.9775
-0.4910 -5.5579 -0.0314 0.9779
0.0050 -5.5116 -0.0310 0.9782
3.4922 -19.3038 -0.1104 0.9245
9.5400 -16.0939 -0.1053 0.9279
9.5841 -13.3086 -0.0923 0.9365
9.6166 -11.1171 -0.0827 0.9429
9.6411 -9.3229 -0.0755 0.9478
6.5944 -5.3283 -0.0477 0.9667
7.2180 -4.8388 -0.0489 0.9658
8.5915 -4.7108 -0.0552 0.9616
9.6950 -4.2426 -0.0596 0.9586
9.7017 -3.2524 -0.0576 0.9599
9.7065 -2.3183 -0.0562 0.9609
9.7097 -1.4220 -0.0553 0.9615
9.7113 -0.5481 -0.0548 0.9618
5.6824 0.1855 -0.0320 0.9775
9.7103 1.1873 -0.0551 0.9616
9.7075 2.0762 -0.0559 0.9611
9.7032 2.9987 -0.0572 0.9602
9.6970 3.9720 -0.0590 0.9589
9.6887 5.0169 -0.0614 0.9573
9.6780 6.1600 -0.0646 0.9551
4.2403 6.7807 -0.0450 0.9685
2.6514 6.6232 -0.0402 0.9719
1.9688 6.5555 -0.0385 0.9730
1.3345 6.4926 -0.0373 0.9738
0.7346 6.4331 -0.0365 0.9744
0.1573 6.3758 -0.0359 0.9748
-0.4074 6.3198 -0.0357 0.9750
-1.5352 6.2079 -0.0360 0.9747
-4.0627 5.9569 -0.0406 0.9716
-5.6938 5.7948 -0.0457 0.9680
-7.8775 5.5779 -0.0544 0.9621
-9.8810 5.7511 -0.0644 0.9553
-11.9204 5.5839 -0.0741 0.9487
-10.7537 -6.4644 -0.0706 0.9510
-6.8959 -6.0397 -0.0516 0.9640
-6.5124 -6.8183 -0.0531 0.9630
-17.3225 -21.7115 -0.1564 0.8948
-14.1765 -21.4318 -0.1447 0.9023
-8.7209 -20.2678 -0.1242 0.9155
-1.8674 -5.6864 -0.0337 0.9763
-1.3090 -5.6343 -0.0326 0.9771
-0.7828 -5.5852 -0.0318 0.9777
2.4923 -19.3896 -0.1101 0.9248
4.2392 -19.2398 -0.1109 0.9242
7.8892 -18.9268 -0.1154 0.9213
9.5990 -12.3169 -0.0879 0.9394
9.6278 -10.3131 -0.0794 0.9451
6.6480 -5.9582 -0.0503 0.9649
7.7629 -4.7881 -0.0514 0.9642
9.2912 -4.6456 -0.0585 0.9593
9.7081 -1.9330 -0.0557 0.9612
9.7106 -1.0481 -0.0550 0.9617
5.4948 -0.1016 -0.0310 0.9783
9.7112 0.6862 -0.0548 0.9618
9.7093 1.5626 -0.0554 0.9614
9.7059 2.4639 -0.0564 0.9607
9.7008 3.4057 -0.0579 0.9597
9.6938 4.4066 -0.0600 0.9583
9.6845 5.4897 -0.0627 0.9564
7.1017 7.0644 -0.0564 0.9607
5.8324 6.9386 -0.0510 0.9644
3.8698 6.7440 -0.0438 0.9694
2.3538 6.5938 -0.0394 0.9724
1.6937 6.5283 -0.0380 0.9734
1.0756 6.4670 -0.0369 0.9741
-11.9275 -6.5680 -0.3834 0.9470
-9.4563 -6.3643 -0.3210 0.9554
-6.4915 -6.3002 -0.2547 0.9644
-6.4012 -7.4274 -0.2761 0.9615
-15.4684 -21.5623 -0.7472 0.8993
-12.1373 -20.5607 -0.6723 0.9089
-7.4849 -20.1782 -0.6060 0.9175
-1.5431 -5.6598 -0.1652 0.9768
0.0050 -5.5150 -0.1553 0.9782
1.7553 -19.4639 -0.5503 0.9248
5.2624 -19.1633 -0.5596 0.9236
8.3371 -14.0646 -0.4604 0.9367
6.6325 -6.4137 -0.2598 0.9638
7.2251 -4.8436 -0.2449 0.9658
8.6011 -4.7160 -0.2762 0.9615
8.9635 -3.9225 -0.2755 0.9616
8.9921 -3.0146 -0.2671 0.9628
9.0266 -1.3220 -0.2569 0.9642
9.0291 1.1041 -0.2561 0.9643
9.0172 1.9286 -0.2596 0.9638
8.9984 2.7809 -0.2652 0.9630
7.7205 7.1188 -0.2957 0.9588
5.1997 6.8702 -0.2426 0.9661
2.6495 6.6183 -0.2007 0.9719
1.9674 6.5509 -0.1926 0.9730
0.7341 6.4288 -0.1822 0.9744
0.1572 6.3716 -0.1795 0.9748
-0.4071 6.3157 -0.1782 0.9750
-2.7213 6.0857 -0.1877 0.9737
-3.3645 6.0217 -0.1942 0.9728
-4.8258 5.8761 -0.2141 0.9700
-7.8696 5.5723 -0.2715 0.9621
-11.9074 5.5778 -0.3703 0.9487
-20.1064 5.3490 -0.5859 0.9201
-8.4296 -6.1498 -0.2938 0.9591
-6.4549 -6.7581 -0.2631 0.9633
-13.6845 -20.6880 -0.6985 0.9055
-11.0612 -20.4722 -0.6552 0.9111
-8.7262 -20.2802 -0.6217 0.9154
-0.2785 -5.5415 -0.1562 0.9780
0.2250 -5.7946 -0.1633 0.9771
4.2416 -19.2508 -0.5551 0.9241
7.4990 -17.9908 -0.5488 0.9250
8.5673 -10.9930 -0.3924 0.9458
6.5644 -4.9049 -0.2308 0.9677
9.0196 -1.7959 -0.2590 0.9639
9.0101 2.2872 -0.2618 0.9635
8.3255 6.9239 -0.3049 0.9576
7.0943 7.0571 -0.2818 0.9607
5.8270 6.9321 -0.2550 0.9644
4.7719 6.8280 -0.2346 0.9672
3.8667 6.7386 -0.2188 0.9694
3.0698 6.6599 -0.2065 0.9711
2.3521 6.5889 -0.1970 0.9724
1.6926 6.5237 -0.1898 0.9734
0.4863 6.4043 -0.1809 0.9746
-6.3423 -7.3591 -0.4927 0.9618
-12.1454 -20.5744 -1.2117 0.9087
-9.6965 -20.3723 -1.1442 0.9136
-1.5441 -5.6635 -0.2977 0.9768
-1.0049 -5.6130 -0.2892 0.9774
0.0050 -5.5185 -0.2799 0.9781
1.7564 -19.4750 -0.9917 0.9247
5.2654 -19.1745 -1.0084 0.9234
7.0779 -14.8010 -0.8320 0.9364
7.8382 -9.0614 -0.6076 0.9531
6.4890 -5.2432 -0.4231 0.9671
8.4110 -2.0088 -0.4386 0.9660
8.4437 -0.4766 -0.4289 0.9667
5.8798 0.1920 -0.2983 0.9767
8.4365 1.0316 -0.4310 0.9665
8.3470 3.4190 -0.4575 0.9645
8.2924 4.2938 -0.4736 0.9633
8.2222 5.2334 -0.4943 0.9617
8.1335 6.2585 -0.5205 0.9597
5.1950 6.8640 -0.4366 0.9661
4.2332 6.7695 -0.4049 0.9685
3.3952 6.6871 -0.3803 0.9704
0.1571 6.3674 -0.3230 0.9748
-0.4068 6.3115 -0.3208 0.9750
-0.9672 6.2559 -0.3210 0.9750
-2.1138 6.1419 -0.3294 0.9743
-4.0566 5.9480 -0.3651 0.9716
-5.6843 5.7851 -0.4113 0.9680
-7.8617 5.5668 -0.4885 0.9622
-11.8945 5.5717 -0.6661 0.9488
-14.6753 5.3410 -0.7920 0.9394
-13.8667 -6.7364 -0.7818 0.9401
-10.7801 -6.4802 -0.6379 0.9509
-8.4368 -6.1550 -0.5296 0.9590
-6.9063 -6.0488 -0.4656 0.9639
-17.3507 -21.7469 -1.4109 0.8946
-11.0684 -20.4855 -1.1809 0.9110
-8.7317 -20.2927 -1.1204 0.9153
-1.3107 -5.6416 -0.2937 0.9771
-0.7838 -5.5923 -0.2864 0.9776
-0.2787 -5.5450 -0.2816 0.9780
0.2135 -5.4990 -0.2791 0.9782
5.9587 -18.8680 -1.0035 0.9238
6.8415 -16.4133 -0.9018 0.9313
7.7348 -9.9249 -0.6381 0.9509
6.5362 -5.8580 -0.4451 0.9655
6.5704 -4.9094 -0.4160 0.9677
7.7788 -4.7979 -0.4635 0.9641
8.3020 -4.1508 -0.4707 0.9635
8.3545 -3.2847 -0.4553 0.9647
8.3938 -2.4644 -0.4437 0.9656
8.4385 -0.9108 -0.4304 0.9666
5.3811 -0.0995 -0.2729 0.9787
8.4426 0.5966 -0.4292 0.9667
8.4298 1.3567 -0.4330 0.9664
8.4066 2.1340 -0.4399 0.9659
8.3255 3.7846 -0.4638 0.9640
8.2646 4.6847 -0.4818 0.9627
8.1869 5.6579 -0.5047 0.9609
5.8215 6.9256 -0.4588 0.9644
4.7678 6.8221 -0.4221 0.9672
3.0674 6.6548 -0.3716 0.9711
0.4860 6.4000 -0.3255 0.9746
-15.6815 -6.8964 -1.2561 0.9336
-11.9593 -6.5856 -1.0010 0.9467
-6.2845 -7.2919 -0.7058 0.9621
-14.9351 -20.8189 -1.8787 0.9023
-12.1535 -20.5881 -1.7530 0.9086
-9.7026 -20.3852 -1.6554 0.9134
0.0050 -5.5219 -0.4049 0.9781
1.7573 -19.4862 -1.4346 0.9245
3.4982 -19.3370 -1.4408 0.9242
4.8277 -17.5837 -1.3373 0.9295
5.7849 -15.5085 -1.2137 0.9358
6.6548 -11.2265 -0.9569 0.9490
6.9447 -9.6434 -0.8714 0.9535
7.1731 -8.2924 -0.8039 0.9570
6.4374 -5.2014 -0.6068 0.9674
7.2393 -4.8531 -0.6390 0.9656
7.7120 -4.2284 -0.6449 0.9653
7.8421 -2.6291 -0.6065 0.9674
7.8834 -1.8828 -0.5943 0.9680
7.9250 -0.4473 -0.5820 0.9687
7.8920 1.6879 -0.5917 0.9681
7.8546 2.4274 -0.6028 0.9676
7.7335 4.0044 -0.6385 0.9657
7.6455 4.8663 -0.6645 0.9643
6.3234 6.9687 -0.6900 0.9630
5.1904 6.8579 -0.6306 0.9661
3.3925 6.6819 -0.5495 0.9704
1.9646 6.5416 -0.5008 0.9730
0.7330 6.4202 -0.4738 0.9744
0.1570 6.3632 -0.4667 0.9748
-0.4066 6.3073 -0.4634 0.9750
-0.9666 6.2517 -0.4638 0.9749
-1.5321 6.1955 -0.4680 0.9747
-2.1123 6.1377 -0.4759 0.9743
-2.7175 6.0773 -0.4881 0.9737
-7.8538 5.5612 -0.7056 0.9621
-11.8814 5.5656 -0.9620 0.9487
-14.6562 5.3340 -1.1436 0.9394
-20.0373 5.3306 -1.5203 0.9202
-27.1414 4.6865 -2.0195 0.8954
-13.8876 -6.7466 -1.1321 0.9400
-10.7933 -6.4882 -0.9234 0.9507
-6.9115 -6.0534 -0.6737 0.9638
-17.3649 -21.7647 -2.0415 0.8943
-11.0756 -20.4988 -1.7084 0.9108
-8.7371 -20.3053 -1.6208 0.9152
-6.6107 -20.1295 -1.5535 0.9185
-1.3116 -5.6453 -0.4250 0.9770
-0.7843 -5.5958 -0.4143 0.9776
-0.2789 -5.5485 -0.4073 0.9780
0.2136 -5.5024 -0.4038 0.9782
4.2465 -19.2730 -1.4470 0.9239
6.4520 -12.2744 -1.0168 0.9459
6.7869 -10.5193 -0.9179 0.9510
7.0484 -9.0441 -0.8407 0.9551
6.4816 -5.8090 -0.6382 0.9657
7.7456 -3.8726 -0.6350 0.9659
7.8615 -2.3081 -0.6008 0.9677
7.8967 -1.5724 -0.5904 0.9682
7.9184 -0.8546 -0.5840 0.9686
7.9236 0.5598 -0.5824 0.9686
7.8342 2.7504 -0.6088 0.9672
7.7752 3.5345 -0.6262 0.9663
7.6985 4.3639 -0.6489 0.9651
7.6014 5.2532 -0.6775 0.9636
5.8160 6.9191 -0.6628 0.9644
3.8604 6.7277 -0.5687 0.9694
3.0651 6.6497 -0.5369 0.9711
1.6902 6.5146 -0.4935 0.9734
-11.9754 -6.5944 -1.3125 0.9465
-7.5221 -6.1004 -0.9298 0.9618
-6.3286 -6.1420 -0.8467 0.9652
-6.2274 -7.2258 -0.9158 0.9624
-14.9458 -20.8338 -2.4616 0.9021
-1.5462 -5.6711 -0.5643 0.9767
0.0050 -5.5254 -0.5305 0.9780
1.7583 -19.4974 -1.8794 0.9243
3.3101 -18.2976 -1.7852 0.9280
4.4413 -16.1734 -1.6102 0.9348
5.1261 -13.7422 -1.4081 0.9428
6.3579 -8.8287 -1.0445 0.9572
6.4607 -6.2476 -0.8628 0.9645
6.3865 -5.1603 -0.7883 0.9675
7.2190 -3.9581 -0.7904 0.9675
7.3037 -3.1961 -0.7654 0.9685
7.3689 -2.4704 -0.7461 0.9693
7.4483 -1.0908 -0.7227 0.9702
5.0631 0.1653 -0.4864 0.9798
7.4542 0.9115 -0.7210 0.9703
7.3832 2.2817 -0.7419 0.9694
7.3229 2.9995 -0.7597 0.9687
7.2436 3.7507 -0.7831 0.9678
7.1428 4.5464 -0.8129 0.9665
6.3061 6.9496 -0.9009 0.9630
5.1857 6.8518 -0.8250 0.9661
3.3899 6.6766 -0.7189 0.9704
0.1568 6.3590 -0.6107 0.9748
-0.4063 6.3032 -0.6064 0.9749
-0.9660 6.2476 -0.6069 0.9749
-4.0505 5.9391 -0.6902 0.9715
-5.6746 5.7753 -0.7773 0.9680
-6.6674 5.6750 -0.8406 0.9654
-14.6372 5.3271 -1.4954 0.9393
-20.0028 5.3215 -1.9872 0.9202
-27.0794 4.6758 -2.6382 0.8955
-13.9087 -6.7568 -1.4845 0.9398
-10.8067 -6.4963 -1.2105 0.9506
-8.6573 -6.3159 -1.0288 0.9579
-6.9168 -6.0580 -0.8827 0.9637
-6.2876 -6.5830 -0.8740 0.9641
-16.7418 -20.9837 -2.5772 0.8977
-11.0828 -20.5122 -2.2383 0.9106
-8.7425 -20.3178 -2.1235 0.9150
-6.6146 -20.1415 -2.0353 0.9183
-1.3124 -5.6491 -0.5568 0.9770
-0.2791 -5.5520 -0.5337 0.9779
0.2138 -5.5058 -0.5290 0.9781
4.7579 -15.0656 -1.5168 0.9385
5.3629 -12.8660 -1.3382 0.9455
6.4277 -5.7607 -0.8287 0.9659
7.1604 -4.4164 -0.8077 0.9668
7.3337 -2.8834 -0.7565 0.9688
7.3912 -2.1701 -0.7396 0.9695
7.4320 -1.4798 -0.7275 0.9700
4.8988 -0.0906 -0.4704 0.9805
7.4443 1.1981 -0.7239 0.9702
7.3597 2.5838 -0.7488 0.9691
7.2035 4.0833 -0.7950 0.9673
7.0926 4.9015 -0.8277 0.9659
6.9546 5.7838 -0.8684 0.9643
6.4152 6.3817 -0.8687 0.9643
5.8105 6.9125 -0.8670 0.9644
2.3470 6.5745 -0.6702 0.9723
0.4853 6.3914 -0.6154 0.9746
-15.7346 -6.9197 -2.0418 0.9331
-11.9915 -6.6033 -1.6261 0.9464
-9.4988 -6.3928 -1.3601 0.9549
-14.9566 -20.8489 -3.0479 0.9018
-12.1698 -20.6158 -2.8437 0.9081
-9.7150 -20.4110 -2.6852 0.9130
-7.5030 -20.2270 -2.5627 0.9168
-1.5472 -5.6749 -0.6987 0.9766
-1.0068 -5.6239 -0.6787 0.9772
-0.4926 -5.5755 -0.6649 0.9777
5.1203 -10.7072 -1.4098 0.9533
5.5313 -9.3312 -1.2885 0.9572
6.1275 -7.0836 -1.1126 0.9630
6.3448 -6.1354 -1.0484 0.9651
6.3362 -5.1196 -0.9676 0.9677
6.6667 -4.4691 -0.9534 0.9682
6.7834 -3.7193 -0.9190 0.9693
6.8761 -3.0090 -0.8916 0.9702
6.9478 -2.3292 -0.8704 0.9709
7.0003 -1.6719 -0.8549 0.9714
5.3060 0.1733 -0.6306 0.9788
6.7004 4.2647 -0.9435 0.9685
6.5637 5.0506 -0.9838 0.9672
5.8531 6.4503 -1.0346 0.9655
3.3872 6.6714 -0.8888 0.9703
2.6416 6.5987 -0.8443 0.9718
-0.4060 6.2990 -0.7498 0.9749
-0.9653 6.2435 -0.7505 0.9749
-2.7137 6.0688 -0.7897 0.9736
-7.8381 5.5500 -1.1408 0.9621
-13.9299 -6.7671 -1.8396 0.9395
-8.6665 -6.3226 -1.2743 0.9577
-6.9220 -6.0626 -1.0930 0.9636
-16.7544 -20.9995 -3.1911 0.8974
-11.0901 -20.5257 -2.7713 0.9103
-8.7479 -20.3305 -2.6291 0.9147
-0.7853 -5.6030 -0.6721 0.9775
-0.2792 -5.5555 -0.6607 0.9778
2.2903 -17.8179 -2.1339 0.9302
4.8371 -11.6045 -1.4934 0.9506
5.3067 -10.0955 -1.3548 0.9551
5.6802 -8.8039 -1.2446 0.9587
5.9810 -7.6745 -1.1558 0.9616
6.3744 -5.7130 -1.0168 0.9661
6.5874 -4.9220 -0.9768 0.9674
6.7195 -4.1444 -0.9378 0.9687
6.8256 -3.4127 -0.9065 0.9697
7.0451 -0.7604 -0.8417 0.9719
4.9417 -0.0914 -0.5871 0.9803
6.9932 1.7753 -0.8570 0.9714
6.9377 2.4356 -0.8734 0.9708
6.6457 4.5928 -0.9596 0.9680
6.4964 5.4027 -1.0037 0.9665
6.1238 6.0917 -1.0260 0.9658
4.7554 6.8043 -0.9861 0.9671
2.3453 6.5698 -0.8286 0.9723
-12.0078 -6.6123 -1.9423 0.9461
-9.5096 -6.4001 -1.6241 0.9547
-7.5343 -6.1103 -1.3745 0.9616
-6.2234 -6.0399 -1.2288 0.9656
-6.1156 -7.0960 -1.3273 0.9629
-12.1780 -20.6298 -3.3943 0.9078
-1.5482 -5.6787 -0.8340 0.9765
0.0050 -5.5323 -0.7839 0.9779
3.5184 -12.8126 -1.8826 0.9477
4.1696 -11.1780 -1.6904 0.9529
5.0977 -8.5998 -1.4165 0.9604
5.4334 -7.5449 -1.3174 0.9631
5.9341 -5.7382 -1.1696 0.9672
6.1199 -4.9447 -1.1148 0.9687
6.2720 -4.2045 -1.0699 0.9700
6.3955 -3.5065 -1.0334 0.9710
6.4940 -2.8418 -1.0044 0.9718
6.6264 -1.5826 -0.9653 0.9729
5.3604 0.1750 -0.7599 0.9786
6.5871 2.0357 -0.9769 0.9725
6.3076 4.0147 -1.0594 0.9702
6.1635 4.7427 -1.1019 0.9691
5.4831 6.0426 -1.1561 0.9676
5.1763 6.8394 -1.2153 0.9659
1.9604 6.5275 -0.9657 0.9728
0.7316 6.4071 -0.9137 0.9743
-0.9647 6.2393 -0.8946 0.9748
-1.5290 6.1831 -0.9025 0.9746
-3.3524 6.0001 -0.9739 0.9726
-4.0444 5.9301 -1.0171 0.9714
-5.6650 5.7655 -1.1453 0.9679
-6.6552 5.6645 -1.2383 0.9653
-26.9553 4.6544 -3.8758 0.8954
-40.9309 3.3620 -5.8190 0.8471
-13.9514 -6.7775 -2.1977 0.9393
-8.6757 -6.3293 -1.5216 0.9575
-6.9273 -6.0673 -1.3048 0.9635
-6.1798 -6.4701 -1.2677 0.9645
-6.6225 -20.1657 -3.0074 0.9178
-1.3142 -5.6565 -0.8228 0.9768
0.2140 -5.5128 -0.7817 0.9780
3.8150 -12.0805 -1.7951 0.9501
5.8098 -6.2233 -1.2063 0.9662
6.1884 -4.6238 -1.0946 0.9693
6.3278 -3.9028 -1.0534 0.9704
6.5290 -2.5670 -0.9940 0.9721
6.6445 -1.3230 -0.9599 0.9730
6.6742 -0.7204 -0.9512 0.9732
4.9277 -0.0911 -0.6983 0.9803
6.6590 1.0717 -0.9557 0.9731
6.4799 2.9456 -1.0085 0.9717
5.3597 6.3763 -1.1802 0.9669
3.8510 6.7113 -1.0964 0.9692
3.0581 6.6344 -1.0351 0.9709
1.0713 6.4405 -0.9251 0.9740
-12.0242 -6.6214 -2.2613 0.9459
-9.5205 -6.4074 -1.8905 0.9545
-6.0607 -7.0323 -1.5294 0.9631
-14.9784 -20.8793 -4.2332 0.9011
-12.1864 -20.6439 -3.9492 0.9074
-9.7275 -20.4373 -3.7287 0.9123
-1.5493 -5.6826 -0.9703 0.9764
-1.0081 -5.6312 -0.9424 0.9771
0.4983 -5.5257 -0.9140 0.9778
3.8109 -10.2163 -1.7963 0.9568
5.5712 -5.3873 -1.2767 0.9691
5.7621 -4.6557 -1.2204 0.9704
5.9193 -3.9681 -1.1740 0.9715
6.0474 -3.3157 -1.1362 0.9724
6.1500 -2.6912 -1.1059 0.9732
6.2296 -2.0884 -1.0824 0.9737
6.2883 -1.5019 -1.0651 0.9741
6.3275 -0.9266 -1.0535 0.9744
6.3481 -0.3583 -1.0474 0.9746
6.3348 0.7746 -1.0514 0.9745
6.1734 2.5287 -1.0990 0.9733
5.8071 4.4684 -1.2071 0.9707
4.8618 6.4239 -1.3272 0.9679
4.2155 6.7413 -1.3098 0.9683
-0.9641 6.2352 -1.0394 0.9747
-1.5280 6.1789 -1.0486 0.9745
-3.3499 5.9957 -1.1314 0.9725
-5.6602 5.7606 -1.3304 0.9678
-7.8221 5.5387 -1.5790 0.9619
-9.8153 5.7128 -1.8709 0.9550
-11.8292 5.5411 -2.1519 0.9484
-40.7893 3.3504 -6.7422 0.8471
-13.9729 -6.7881 -2.5592 0.9390
-8.6850 -6.3361 -1.7711 0.9574
-6.1269 -6.4146 -1.4613 0.9647
-13.7421 -20.7750 -4.1034 0.9040
-11.1048 -20.5529 -3.8485 0.9096
-8.7589 -20.3561 -3.6507 0.9141
-1.3150 -5.6603 -0.9573 0.9767
-0.7863 -5.6103 -0.9333 0.9773
-0.2796 -5.5626 -0.9175 0.9777
0.2142 -5.5162 -0.9094 0.9779
3.4685 -10.9826 -1.8974 0.9544
4.0384 -9.6883 -1.7291 0.9583
4.8764 -7.5581 -1.4818 0.9642
5.4441 -5.8315 -1.3143 0.9682
5.8329 -4.3581 -1.1995 0.9709
5.9772 -3.6865 -1.1569 0.9719
6.0940 -3.0469 -1.1224 0.9728
6.1865 -2.4323 -1.0951 0.9734
6.3460 0.4484 -1.0480 0.9745
6.3226 1.0175 -1.0550 0.9744
6.1353 2.7889 -1.1102 0.9730
5.8964 4.0749 -1.1808 0.9714
5.5374 5.5084 -1.2867 0.9688
5.0390 5.9948 -1.2901 0.9688
4.7400 6.7825 -1.3632 0.9670
3.0557 6.6293 -1.2025 0.9708
-15.8159 -6.9555 -3.2476 0.9321
-12.0409 -6.6305 -2.5837 0.9456
-6.0064 -6.9693 -1.7293 0.9632
-14.9895 -20.8947 -4.8335 0.9006
-12.1948 -20.6581 -4.5090 0.9070
-7.5169 -20.2644 -4.0625 0.9158
-1.5504 -5.6864 -1.1078 0.9763
-0.4935 -5.5863 -1.0541 0.9774
2.1621 -11.9517 -2.2829 0.9518
3.9969 -8.3581 -1.7414 0.9630
4.4008 -7.4240 -1.6222 0.9655
4.7359 -6.5763 -1.5233 0.9676
5.2479 -5.0747 -1.3722 0.9707
5.4417 -4.3968 -1.3150 0.9719
5.6020 -3.7554 -1.2677 0.9729
5.7331 -3.1434 -1.2289 0.9737
5.9204 -1.9848 -1.1737 0.9749
6.0214 -0.8818 -1.1439 0.9755
6.0451 0.1974 -1.1369 0.9757
6.0289 0.7372 -1.1416 0.9756
5.9936 1.2819 -1.1520 0.9754
5.9386 1.8353 -1.1683 0.9750
5.8624 2.4013 -1.1908 0.9745
5.7636 2.9844 -1.2199 0.9739
5.6396 3.5896 -1.2565 0.9732
5.4875 4.2225 -1.3014 0.9722
5.3031 4.8899 -1.3558 0.9711
4.5535 6.0164 -1.4182 0.9698
3.3792 6.6555 -1.4030 0.9701
2.6356 6.5838 -1.3330 0.9715
1.9575 6.5180 -1.2792 0.9727
-1.5270 6.1747 -1.1956 0.9744
-2.1051 6.1167 -1.2159 0.9740
-2.7079 6.0560 -1.2469 0.9734
-3.3475 5.9913 -1.2900 0.9725
-6.6428 5.6540 -1.6396 0.9651
-9.8057 5.7072 -2.1326 0.9549
-14.5604 5.2992 -2.9124 0.9389
-18.6090 4.9507 -3.6194 0.9246
-26.8308 4.6329 -5.1178 0.8951
-40.6477 3.3387 -7.6659 0.8471
-13.9948 -6.7987 -2.9245 0.9386
-10.8612 -6.5290 -2.3820 0.9497
-8.6944 -6.3430 -2.0229 0.9571
-6.9381 -6.0767 -1.7336 0.9632
-13.7519 -20.7898 -4.6852 0.9035
-11.1123 -20.5667 -4.3939 0.9092
-8.7645 -20.3691 -4.1680 0.9137
-6.6306 -20.1902 -3.9944 0.9171
-0.7868 -5.6140 -1.0655 0.9772
0.7428 -5.7784 -1.0950 0.9766
3.1775 -10.0614 -1.9832 0.9580
3.7273 -8.9421 -1.8209 0.9613
4.5510 -7.0538 -1.5778 0.9664
4.8610 -6.2373 -1.4864 0.9683
5.3348 -4.7811 -1.3465 0.9713
5.5137 -4.1197 -1.2937 0.9724
5.6611 -3.4916 -1.2502 0.9733
5.1502 -0.0952 -0.9682 0.9793
5.9727 1.5162 -1.1582 0.9752
5.9088 2.0744 -1.1771 0.9748
3.8447 6.7003 -1.4520 0.9690
2.3401 6.5552 -1.3083 0.9721
1.6842 6.4915 -1.2606 0.9731
1.0698 6.4316 -1.2255 0.9738
0.4841 6.3741 -1.2015 0.9743
-22.3273 -7.5305 -4.9808 0.9082
-5.9526 -6.9069 -1.9274 0.9634
-15.0006 -20.9103 -5.4397 0.9001
-12.2032 -20.6724 -5.0743 0.9065
-9.7402 -20.4640 -4.7907 0.9115
-0.4939 -5.5900 -1.1862 0.9773
0.4957 -5.4971 -1.1667 0.9777
1.1654 -6.4421 -1.3838 0.9736
3.7205 -7.7802 -1.8230 0.9654
4.4470 -6.1751 -1.6085 0.9694
4.7247 -5.4620 -1.5266 0.9709
5.5546 -2.4307 -1.2816 0.9755
5.6999 -1.3613 -1.2387 0.9763
5.7413 -0.8408 -1.2265 0.9766
5.7630 -0.3253 -1.2201 0.9767
5.7129 1.2219 -1.2349 0.9764
5.1989 4.0004 -1.3866 0.9735
4.7909 5.2798 -1.5070 0.9713
3.9811 6.3664 -1.5872 0.9698
2.6336 6.5787 -1.4979 0.9714
0.1563 6.3376 -1.3400 0.9744
-0.4049 6.2821 -1.3307 0.9746
-0.9627 6.2267 -1.3319 0.9746
-1.5259 6.1705 -1.3436 0.9743
-2.1037 6.1125 -1.3664 0.9739
-2.7061 6.0517 -1.4013 0.9733
-4.0351 5.9165 -1.5138 0.9711
-5.6504 5.7506 -1.7042 0.9676
-6.6365 5.6487 -1.8422 0.9650
-7.8061 5.5273 -2.0218 0.9616
-26.7682 4.6221 -5.7420 0.8949
-40.5059 3.3271 -8.5910 0.8469
-14.0169 -6.8094 -3.2940 0.9383
-8.7039 -6.3499 -2.2774 0.9569
-6.0223 -6.3052 -1.8431 0.9650
-5.8957 -7.3896 -1.9982 0.9621
-13.7618 -20.8048 -5.2728 0.9030
-6.6346 -20.2026 -4.4948 0.9167
-0.2799 -5.5698 -1.1788 0.9775
0.2145 -5.5234 -1.1684 0.9777
0.7041 -5.4777 -1.1674 0.9777
2.2865 -10.3775 -2.2462 0.9575
2.9297 -9.2767 -2.0564 0.9610
4.5712 -5.8654 -1.5719 0.9701
5.0450 -4.5214 -1.4320 0.9727
5.2254 -3.9043 -1.3788 0.9737
5.3745 -3.3148 -1.3348 0.9745
5.6670 -1.6638 -1.2485 0.9761
5.7529 -0.6209 -1.2231 0.9766
5.7608 0.4071 -1.2208 0.9767
5.7360 0.9232 -1.2281 0.9765
5.6915 1.4448 -1.2412 0.9763
5.5392 2.5180 -1.2862 0.9754
5.4282 3.0770 -1.3189 0.9748
5.1240 4.2614 -1.4087 0.9731
4.9234 4.8976 -1.4679 0.9720
4.6837 5.5721 -1.5387 0.9707
4.1589 5.9510 -1.5347 0.9708
3.8370 6.6870 -1.6297 0.9690
3.0509 6.6189 -1.5406 0.9706
0.4837 6.3697 -1.3503 0.9742
-22.3813 -7.5487 -5.5513 0.9075
-15.8718 -6.9801 -4.0750 0.9312
-12.0747 -6.6491 -3.2396 0.9449
-6.2166 -6.0333 -2.0360 0.9650
-15.0120 -20.9260 -6.0527 0.8996
-12.2118 -20.6870 -5.6458 0.9060
-9.7466 -20.4775 -5.3300 0.9110
-7.2570 -19.5636 -4.9041 0.9178
-4.8821 -17.9063 -4.3620 0.9266
-1.0101 -5.6426 -1.3472 0.9767
-0.4942 -5.5937 -1.3198 0.9772
0.0050 -5.5466 -1.3036 0.9775
0.4961 -5.5007 -1.2980 0.9776
1.0195 -5.6353 -1.3459 0.9767
2.4699 -8.9941 -2.1921 0.9624
3.0188 -8.0930 -2.0301 0.9651
3.8636 -6.5178 -1.7807 0.9693
4.1890 -5.8168 -1.6847 0.9710
4.4638 -5.1603 -1.6036 0.9724
4.6956 -4.5406 -1.5352 0.9735
4.8904 -3.9514 -1.4777 0.9745
5.0529 -3.3873 -1.4297 0.9753
5.1867 -2.8438 -1.3902 0.9760
5.3792 -1.8034 -1.3334 0.9770
5.4418 -1.2997 -1.3149 0.9773
5.4837 -0.8030 -1.3026 0.9775
5.5058 -0.3107 -1.2960 0.9776
5.4915 0.6715 -1.3002 0.9775
5.4550 1.1667 -1.3110 0.9773
5.3195 2.1789 -1.3510 0.9767
5.0913 3.2405 -1.4184 0.9755
4.9368 3.7987 -1.4640 0.9747
4.7510 4.3808 -1.5188 0.9738
4.5296 4.9918 -1.5842 0.9727
4.2669 5.6378 -1.6617 0.9714
3.7406 5.9819 -1.6581 0.9714
3.3737 6.6448 -1.7514 0.9698
1.3252 6.4475 -1.5470 0.9733
0.1562 6.3332 -1.4889 0.9743
-2.7041 6.0473 -1.5569 0.9731
-3.3425 5.9824 -1.6106 0.9722
-4.0320 5.9119 -1.6818 0.9710
-6.6303 5.6434 -2.0463 0.9649
-7.7979 5.5216 -2.2456 0.9615
-9.7865 5.6960 -2.6613 0.9545
-26.7054 4.6112 -6.3693 0.8946
-40.3637 3.3154 -9.5184 0.8467
-14.0393 -6.8203 -3.6683 0.9379
-10.8894 -6.5459 -2.9861 0.9491
-6.9490 -6.0863 -2.1710 0.9628
-5.8410 -7.3209 -2.2011 0.9622
-11.1274 -20.5947 -5.5016 0.9083
-8.7758 -20.3954 -5.2183 0.9128
-6.1282 -18.6605 -4.6161 0.9225
-0.2801 -5.5735 -1.3115 0.9773
1.4878 -6.7526 -1.6251 0.9720
3.6501 -6.9440 -1.8437 0.9683
4.3117 -5.5324 -1.6485 0.9716
4.5673 -4.8925 -1.5730 0.9729
4.7828 -4.2864 -1.5094 0.9740
4.9633 -3.7084 -1.4561 0.9749
5.3335 -2.0970 -1.3469 0.9767
5.4085 -1.5879 -1.3248 0.9771
5.4955 -0.5931 -1.2991 0.9775
5.5093 -0.1019 -1.2950 0.9776
5.5036 0.3889 -1.2967 0.9776
5.4784 0.8817 -1.3041 0.9775
5.4333 1.3793 -1.3174 0.9772
5.3673 1.8843 -1.3369 0.9769
5.1673 2.9290 -1.3960 0.9759
5.0291 3.4755 -1.4367 0.9752
4.6614 4.6370 -1.5453 0.9733
4.4231 5.2621 -1.6156 0.9721
3.5995 6.2731 -1.6998 0.9707
1.6818 6.4821 -1.5739 0.9729
-22.4362 -7.5672 -6.1307 0.9068
-15.9003 -6.9927 -4.4974 0.9307
-12.0919 -6.6586 -3.5741 0.9446
-9.5652 -6.4375 -2.9853 0.9535
-7.5655 -6.1356 -2.5221 0.9606
-5.8463 -6.7836 -2.3187 0.9637
-15.0233 -20.9420 -6.6732 0.8990
-12.2205 -20.7016 -6.2243 0.9054
-9.0239 -18.9592 -5.4366 0.9169
-1.0108 -5.6465 -1.4852 0.9766
0.4964 -5.5043 -1.4309 0.9774
0.9875 -5.4586 -1.4363 0.9773
2.2948 -8.3565 -2.2438 0.9648
4.6512 -3.7581 -1.5483 0.9756
4.9473 -2.7126 -1.4609 0.9770
5.2459 -0.7682 -1.3727 0.9783
5.2681 -0.2973 -1.3662 0.9784
5.2537 0.6425 -1.3704 0.9784
5.2169 1.1158 -1.3813 0.9782
4.8517 3.0881 -1.4891 0.9765
4.6974 3.6145 -1.5346 0.9758
4.5125 4.1608 -1.5892 0.9750
4.2929 4.7309 -1.6540 0.9739
4.0336 5.3295 -1.7306 0.9728
3.6511 5.8388 -1.7830 0.9719
2.6295 6.5686 -1.8319 0.9712
1.9532 6.5036 -1.7582 0.9723
0.7291 6.3849 -1.6639 0.9738
-0.4044 6.2735 -1.6277 0.9744
-3.3400 5.9779 -1.7730 0.9721
-4.0287 5.9072 -1.8513 0.9709
-7.7898 5.5158 -2.4714 0.9613
-11.7758 5.5162 -3.3669 0.9477
-18.5158 4.9259 -4.9608 0.9239
-19.1506 -7.2782 -5.3045 0.9188
-14.0620 -6.8313 -4.0478 0.9374
-10.9037 -6.5546 -3.2940 0.9488
-6.9546 -6.0912 -2.3937 0.9625
-5.9194 -6.1974 -2.2190 0.9652
-5.7866 -7.2529 -2.4024 0.9624
-13.7820 -20.8354 -6.4681 0.9019
-11.0693 -20.4872 -6.0293 0.9083
-8.1073 -18.8417 -5.3109 0.9187
0.7050 -5.4848 -1.4318 0.9774
2.5293 -8.0087 -2.1746 0.9659
3.7802 -5.8590 -1.8053 0.9716
4.0777 -5.2322 -1.7175 0.9730
4.5440 -4.0724 -1.5799 0.9751
4.7239 -3.5296 -1.5268 0.9759
4.8737 -3.0059 -1.4826 0.9766
4.9965 -2.4981 -1.4464 0.9772
5.0947 -2.0030 -1.4174 0.9776
5.1701 -1.5179 -1.3951 0.9780
5.2578 -0.5675 -1.3692 0.9784
5.2716 -0.0974 -1.3651 0.9785
5.2405 0.8434 -1.3743 0.9783
4.7896 3.3100 -1.5074 0.9762
4.6227 3.8444 -1.5567 0.9755
3.3876 5.9037 -1.7623 0.9723
3.0231 6.5587 -1.8699 0.9706
1.6805 6.4773 -1.7326 0.9727
1.0675 6.4179 -1.6845 0.9735
-22.4919 -7.5860 -6.7197 0.9060
-15.9293 -7.0054 -4.9263 0.9302
-12.1094 -6.6682 -3.9135 0.9442
-9.5768 -6.4453 -3.2680 0.9531
-6.2260 -6.0425 -2.4562 0.9646
-5.7937 -6.7225 -2.5124 0.9638
-14.4986 -20.2104 -7.0414 0.9018
-11.1603 -18.9056 -6.2150 0.9128
-5.6300 -15.1776 -4.5827 0.9349
-1.5547 -5.7024 -1.6732 0.9757
-1.0116 -5.6504 -1.6250 0.9764
0.4967 -5.5080 -1.5656 0.9773
0.9881 -5.4622 -1.5714 0.9772
1.7797 -6.4810 -1.9026 0.9724
2.6431 -7.0858 -2.1410 0.9690
3.0704 -6.4207 -2.0148 0.9708
3.4352 -5.7952 -1.9072 0.9724
4.2399 -4.0999 -1.6697 0.9758
4.4319 -3.5809 -1.6130 0.9766
4.5931 -3.0791 -1.5654 0.9773
4.9199 -1.6494 -1.4690 0.9787
5.0477 -0.2849 -1.4312 0.9792
5.0503 0.1649 -1.4305 0.9792
5.0333 0.6155 -1.4355 0.9791
4.8598 1.9906 -1.4867 0.9784
4.7579 2.4636 -1.5168 0.9780
4.2943 3.9596 -1.6536 0.9760
4.0773 4.4934 -1.7177 0.9751
2.6135 6.5287 -1.9908 0.9712
-0.4041 6.2691 -1.7784 0.9742
-0.9607 6.2138 -1.7800 0.9742
-1.5227 6.1575 -1.7957 0.9740
-2.0992 6.0995 -1.8261 0.9735
-3.3374 5.9733 -1.9371 0.9720
-4.0255 5.9025 -2.0226 0.9707
-6.6175 5.6325 -2.4601 0.9645
-7.7815 5.5099 -2.6992 0.9611
-40.0776 3.2919 -11.3839 0.8461
-14.0851 -6.8425 -4.4330 0.9370
-6.9603 -6.0961 -2.6193 0.9623
-12.7859 -19.3295 -6.5609 0.9081
-6.9369 -16.1216 -4.9685 0.9296
-4.7717 -14.5297 -4.3294 0.9384
-0.7890 -5.6292 -1.6091 0.9766
-0.2805 -5.5810 -1.5819 0.9770
0.2149 -5.5344 -1.5679 0.9772
0.7055 -5.4885 -1.5665 0.9773
1.1992 -5.4427 -1.5777 0.9771
2.8334 -6.7974 -2.0848 0.9698
3.5739 -5.5393 -1.8662 0.9730
3.8655 -4.9599 -1.7802 0.9742
4.5041 -3.3653 -1.5917 0.9769
4.7757 -2.3878 -1.5115 0.9780
5.0035 -0.9962 -1.4443 0.9790
5.0373 -0.5437 -1.4343 0.9792
4.9079 1.7230 -1.4725 0.9786
4.8193 2.1908 -1.4986 0.9782
4.5694 3.1579 -1.5724 0.9772
4.4035 3.6622 -1.6214 0.9765
4.2063 4.1842 -1.6796 0.9756
3.9736 4.7273 -1.7483 0.9747
3.7006 5.2952 -1.8288 0.9735
3.3300 5.8034 -1.8941 0.9726
2.8434 6.1689 -1.9229 0.9722
1.6793 6.4725 -1.8930 0.9726
1.0667 6.4133 -1.8405 0.9733
0.4827 6.3563 -1.8046 0.9738
-22.5486 -7.6051 -7.3193 0.9052
-12.1271 -6.6780 -4.2582 0.9437
-9.5885 -6.4532 -3.5549 0.9528
-7.5786 -6.1462 -3.0012 0.9600
-6.2308 -6.0471 -2.6707 0.9643
-5.7071 -6.6220 -2.6889 0.9641
-9.4257 -15.9672 -5.7031 0.9253
-6.9461 -14.5936 -4.9712 0.9346
-4.9573 -13.3641 -4.3842 0.9421
-0.4952 -5.6051 -1.7307 0.9767
0.0051 -5.5578 -1.7095 0.9770
0.4971 -5.5117 -1.7022 0.9771
1.5446 -5.6248 -1.7941 0.9759
2.4855 -6.6634 -2.1875 0.9707
2.8976 -6.0593 -2.0658 0.9723
3.8169 -4.4125 -1.7945 0.9759
4.0401 -3.9068 -1.7286 0.9768
4.3896 -2.9427 -1.6255 0.9781
4.6301 -2.0262 -1.5545 0.9791
4.8451 0.1582 -1.4910 0.9799
4.8281 0.5904 -1.4961 0.9799
4.7337 1.4629 -1.5239 0.9795
4.5534 2.3578 -1.5771 0.9788
4.2753 3.2897 -1.6592 0.9777
3.6295 4.7956 -1.8498 0.9751
3.3374 5.3369 -1.9361 0.9740
2.9285 5.7679 -1.9896 0.9733
1.9502 6.4937 -2.0855 0.9720
1.3223 6.4333 -2.0201 0.9729
-0.4038 6.2647 -1.9309 0.9741
-0.9601 6.2094 -1.9326 0.9740
-1.5216 6.1532 -1.9496 0.9738
-2.0976 6.0950 -1.9826 0.9734
-2.6981 6.0339 -2.0330 0.9727
-3.3349 5.9687 -2.1030 0.9718
-7.7731 5.5040 -2.9296 0.9609
-11.7485 5.5033 -3.9904 0.9472
-14.4617 5.2632 -4.7336 0.9376
-29.1259 -8.1915 -9.3061 0.8811
-19.2336 -7.3098 -6.3287 0.9175
-8.7431 -6.3785 -3.3288 0.9557
-5.5912 -7.0078 -2.7574 0.9632
-11.1336 -16.8316 -6.2071 0.9190
-8.3008 -15.3633 -5.3711 0.9295
-6.0472 -14.0540 -4.7059 0.9380
-4.2295 -12.8788 -4.1694 0.9449
-1.3205 -5.6839 -1.7948 0.9759
-0.2807 -5.5848 -1.7199 0.9769
0.2150 -5.5381 -1.7047 0.9771
0.7059 -5.4922 -1.7032 0.9771
1.2000 -5.4464 -1.7154 0.9769
2.6687 -6.4022 -2.1334 0.9714
3.3868 -5.2493 -1.9215 0.9742
3.6719 -4.7115 -1.8373 0.9753
3.9163 -4.1950 -1.7652 0.9763
4.1247 -3.6967 -1.7036 0.9771
4.4493 -2.7442 -1.6079 0.9784
4.5711 -2.2854 -1.5719 0.9788
4.6689 -1.8356 -1.5431 0.9792
4.7443 -1.3929 -1.5208 0.9795
4.8460 -0.0896 -1.4908 0.9799
4.8403 0.3420 -1.4925 0.9799
4.8148 0.7749 -1.5000 0.9798
4.7692 1.2107 -1.5134 0.9796
4.3661 3.0174 -1.6324 0.9780
3.7781 4.4947 -1.8060 0.9757
3.5105 5.0232 -1.8849 0.9747
3.1989 5.5748 -1.9769 0.9735
2.2828 6.3946 -2.0884 0.9720
1.6780 6.4676 -2.0552 0.9724
-22.6064 -7.6246 -7.9304 0.9043
-9.6004 -6.4612 -3.8467 0.9524
-7.5853 -6.1516 -3.2464 0.9597
-6.2357 -6.0519 -2.8885 0.9640
-8.1424 -13.7934 -5.3243 0.9347
-6.1071 -12.8309 -4.7236 0.9419
-1.5570 -5.7107 -1.9676 0.9754
-1.0130 -5.6584 -1.9108 0.9761
-0.4955 -5.6090 -1.8717 0.9765
0.0051 -5.5617 -1.8487 0.9768
0.4974 -5.5155 -1.8408 0.9769
0.9895 -5.4697 -1.8477 0.9768
2.7411 -5.7320 -2.1120 0.9736
3.6366 -4.2040 -1.8477 0.9768
3.8560 -3.7286 -1.7830 0.9776
4.5236 -1.5165 -1.5859 0.9801
4.5863 -1.0954 -1.5674 0.9803
4.6285 -0.6778 -1.5550 0.9805
4.6508 -0.2625 -1.5484 0.9806
4.6534 0.1520 -1.5476 0.9806
4.6364 0.5670 -1.5526 0.9805
4.5996 0.9837 -1.5635 0.9804
4.5424 1.4038 -1.5804 0.9802
4.4640 1.8285 -1.6035 0.9799
4.3632 2.2593 -1.6333 0.9795
3.6985 4.0759 -1.8295 0.9771
3.1679 5.0659 -1.9861 0.9751
1.3214 6.4285 -2.1816 0.9727
0.1558 6.3152 -2.0999 0.9737
-0.9594 6.2050 -2.0871 0.9739
-2.6961 6.0294 -2.1955 0.9725
-4.7750 5.8141 -2.5009 0.9688
-5.6251 5.7249 -2.6679 0.9667
-6.6045 5.6214 -2.8829 0.9641
-7.7647 5.4980 -3.1626 0.9607
-14.4414 5.2559 -5.1084 0.9373
-18.4203 4.9005 -6.3360 0.9228
-24.9787 4.3131 -8.4259 0.8987
-14.1323 -6.8654 -5.2227 0.9359
-8.7533 -6.3860 -3.6017 0.9554
-5.4412 -6.8199 -2.9001 0.9639
-9.5035 -14.3672 -5.7260 0.9300
-7.2280 -13.3777 -5.0544 0.9379
-5.3513 -12.4367 -4.5005 0.9445
-3.7926 -11.5483 -4.0404 0.9501
-0.7901 -5.6371 -1.8921 0.9763
-0.2809 -5.5887 -1.8600 0.9767
0.2152 -5.5419 -1.8435 0.9769
1.2008 -5.4502 -1.8551 0.9767
1.8282 -5.7891 -2.0180 0.9747
2.8935 -5.5044 -2.0671 0.9741
3.2160 -4.9846 -1.9719 0.9753
3.4945 -4.4839 -1.8897 0.9763
4.1136 -3.0736 -1.7069 0.9786
4.2600 -2.6275 -1.6637 0.9791
4.3808 -2.1903 -1.6281 0.9796
4.4779 -1.7606 -1.5994 0.9799
4.5529 -1.3367 -1.5773 0.9802
4.6068 -0.9173 -1.5614 0.9804
4.6543 -0.0860 -1.5474 0.9806
4.6486 0.3285 -1.5491 0.9805
4.5117 1.5839 -1.5894 0.9800
4.1777 2.8871 -1.6880 0.9788
3.8233 3.8034 -1.7926 0.9775
3.5985 4.2810 -1.8590 0.9767
3.0332 5.2861 -2.0258 0.9746
2.6431 5.7342 -2.0988 0.9737
2.1514 6.0269 -2.1272 0.9734
-44.0121 -6.5274 -15.9112 0.8278
-40.1926 -9.6768 -14.7839 0.8389
-16.0192 -7.0450 -6.2581 0.9284
-12.1636 -6.6981 -4.9657 0.9427
-7.5921 -6.1571 -3.4956 0.9593
-6.2407 -6.0567 -3.1100 0.9637
-5.4140 -6.2819 -2.9657 0.9654
-7.1539 -12.1187 -5.0325 0.9420
-5.4399 -11.4297 -4.5266 0.9476
-1.5581 -5.7150 -2.1183 0.9752
-1.0137 -5.6625 -2.0571 0.9759
-0.4959 -5.6130 -2.0151 0.9763
0.4977 -5.5193 -1.9818 0.9767
0.9902 -5.4736 -1.9891 0.9766
2.5987 -5.4342 -2.1541 0.9747
2.9315 -4.9453 -2.0558 0.9759
3.4702 -4.0116 -1.8969 0.9777
3.6854 -3.5638 -1.8333 0.9785
3.8695 -3.1264 -1.7790 0.9791
4.1553 -2.2783 -1.6946 0.9801
4.3448 -1.4566 -1.6387 0.9807
4.4071 -1.0525 -1.6203 0.9809
4.4490 -0.6515 -1.6080 0.9811
4.4737 0.1461 -1.6007 0.9812
4.3634 1.3485 -1.6332 0.9808
4.0624 2.5857 -1.7220 0.9798
3.2906 4.3477 -1.9499 0.9771
3.0126 4.8175 -2.0319 0.9762
1.7954 5.9784 -2.2322 0.9738
1.3203 6.4236 -2.3452 0.9725
0.1556 6.3106 -2.2574 0.9735
-0.4032 6.2556 -2.2417 0.9737
-0.9587 6.2004 -2.2437 0.9737
-2.0945 6.0860 -2.3017 0.9730
-4.7708 5.8090 -2.6882 0.9686
-9.7367 5.6671 -4.0288 0.9533
-11.7204 5.4902 -4.6284 0.9465
-18.3878 4.8918 -6.8043 0.9224
-24.9200 4.3030 -9.0435 0.8981
-39.6421 3.2561 -14.2241 0.8445
-46.7619 -0.3309 -16.7228 0.8198
-45.5592 -4.3919 -16.3679 0.8233
-29.3179 -8.2455 -10.8911 0.8786
-10.9632 -6.5904 -4.5744 0.9471
-8.7637 -6.3935 -3.8793 0.9550
-8.2739 -12.5083 -5.3631 0.9383
-3.4325 -10.4521 -3.9342 0.9543
0.2153 -5.5458 -1.9847 0.9767
0.7070 -5.4999 -1.9829 0.9767
1.2017 -5.4540 -1.9972 0.9766
1.7078 -5.4077 -2.0279 0.9762
2.3853 -5.7224 -2.2171 0.9740
3.7674 -3.3764 -1.8091 0.9787
3.9391 -2.9432 -1.7584 0.9793
4.2032 -2.1015 -1.6805 0.9802
4.2995 -1.6904 -1.6521 0.9806
4.3738 -1.2841 -1.6301 0.9808
4.4274 -0.8815 -1.6143 0.9810
4.4608 -0.4814 -1.6045 0.9811
4.4689 0.3157 -1.6021 0.9811
4.3329 1.5212 -1.6422 0.9807
4.2459 1.9301 -1.6679 0.9804
4.1362 2.3446 -1.7003 0.9800
4.0023 2.7659 -1.7398 0.9795
3.8422 3.1954 -1.7871 0.9790
3.6533 3.6343 -1.8428 0.9783
3.1771 4.5461 -1.9834 0.9767
2.5413 5.5134 -2.1710 0.9745
2.0365 5.7050 -2.1662 0.9746
1.6067 6.1929 -2.2879 0.9732
1.0644 6.3989 -2.3198 0.9728
0.4816 6.3424 -2.2746 0.9733
-31.6610 -4.6956 -12.2658 0.8719
-29.4999 -7.1024 -11.6279 0.8781
-16.0503 -7.0587 -6.7193 0.9276
-12.1824 -6.7084 -5.3296 0.9422
-9.6249 -6.4777 -4.4460 0.9515
-7.5990 -6.1627 -3.7494 0.9590
-6.3681 -10.7877 -4.8006 0.9478
-4.8967 -10.2879 -4.3663 0.9524
-3.6208 -9.7612 -3.9898 0.9564
-1.5593 -5.7193 -2.2717 0.9749
-1.0145 -5.6667 -2.2061 0.9756
-0.4963 -5.6170 -2.1609 0.9761
0.4981 -5.5233 -2.1252 0.9765
2.4683 -5.1615 -2.1926 0.9758
3.3160 -3.8334 -1.9424 0.9785
3.7078 -2.9958 -1.8267 0.9798
3.8613 -2.5885 -1.7814 0.9803
3.9895 -2.1874 -1.7436 0.9807
4.0943 -1.7917 -1.7127 0.9810
4.1770 -1.4003 -1.6882 0.9813
4.2802 -0.6268 -1.6578 0.9816
4.3021 -0.2428 -1.6513 0.9817
4.2880 0.5243 -1.6555 0.9817
4.2517 0.9094 -1.6662 0.9815
4.0197 2.0814 -1.7347 0.9808
3.7513 2.8865 -1.8139 0.9799
3.5780 3.2991 -1.8650 0.9794
3.3753 3.7197 -1.9248 0.9787
2.2024 5.5018 -2.2710 0.9749
1.7023 5.6683 -2.2680 0.9750
1.2563 6.1124 -2.3914 0.9736
-0.4029 6.2510 -2.4005 0.9735
-4.0124 5.8832 -2.7290 0.9700
-5.6146 5.7142 -3.0699 0.9663
-6.5911 5.6100 -3.3169 0.9636
-9.7264 5.6610 -4.3127 0.9529
-14.4000 5.2408 -5.8725 0.9365
-18.3549 4.8831 -7.2786 0.9219
-24.8608 4.2927 -9.6681 0.8976
-30.9107 2.5390 -11.8854 0.8756
-32.5121 -3.1342 -12.5170 0.8694
-19.3641 -7.3594 -7.9385 0.9151
-4.8471 -7.3278 -3.3669 0.9631
-5.7161 -10.5794 -4.6082 0.9498
-3.1306 -9.5327 -3.8451 0.9579
-1.3234 -5.6965 -2.2411 0.9753
-0.7912 -5.6453 -2.1845 0.9759
-0.2813 -5.5966 -2.1474 0.9763
0.2155 -5.5497 -2.1283 0.9765
0.7074 -5.5037 -2.1265 0.9765
1.2026 -5.4579 -2.1417 0.9763
1.7090 -5.4116 -2.1748 0.9760
2.2623 -5.4274 -2.2533 0.9751
2.6110 -4.9671 -2.1504 0.9762
2.9152 -4.5184 -2.0606 0.9772
3.4096 -3.6523 -1.9147 0.9788
3.7763 -2.8215 -1.8065 0.9800
3.9188 -2.4170 -1.7644 0.9805
4.1321 -1.6246 -1.7015 0.9812
4.2920 -0.4632 -1.6543 0.9817
4.3000 0.3039 -1.6519 0.9817
4.2749 0.6880 -1.6593 0.9816
4.1653 1.4623 -1.6917 0.9813
3.9707 2.2508 -1.7491 0.9806
3.8386 2.6528 -1.7881 0.9802
3.6809 3.0612 -1.8347 0.9797
3.4954 3.4771 -1.8894 0.9791
3.2795 3.9015 -1.9531 0.9784
2.7425 4.7794 -2.1116 0.9767
-16.0821 -7.0726 -7.1904 0.9269
-12.2015 -6.7189 -5.7009 0.9416
-5.1581 -5.9850 -3.2337 0.9664
-4.4449 -9.3387 -4.2330 0.9563
-3.3131 -8.9317 -3.8989 0.9597
-0.4966 -5.6212 -2.3095 0.9759
0.0051 -5.5736 -2.2811 0.9762
0.4985 -5.5272 -2.2713 0.9763
1.9923 -5.3410 -2.3331 0.9757
2.3484 -4.9110 -2.2279 0.9767
3.3790 -3.2674 -1.9238 0.9799
3.8339 -2.1020 -1.7895 0.9813
4.0801 -0.9745 -1.7168 0.9820
4.1429 -0.2339 -1.6983 0.9822
4.1455 0.1354 -1.6975 0.9822
4.1289 0.5049 -1.7024 0.9822
4.0930 0.8754 -1.7130 0.9821
4.0373 1.2477 -1.7295 0.9819
3.9612 1.6225 -1.7519 0.9817
3.8637 2.0007 -1.7807 0.9814
3.7436 2.3827 -1.8162 0.9810
3.5993 2.7695 -1.8587 0.9806
3.2306 3.5603 -1.9676 0.9794
2.7375 4.3776 -2.1131 0.9779
2.4359 4.7977 -2.2021 0.9770
2.0918 5.2255 -2.3037 0.9760
1.1864 5.7727 -2.4120 0.9749
0.7077 6.1983 -2.5533 0.9734
-0.4026 6.2462 -2.5618 0.9733
-0.9572 6.1912 -2.5640 0.9733
-1.5171 6.1350 -2.5865 0.9731
-2.0913 6.0767 -2.6302 0.9726
-4.0089 5.8781 -2.9120 0.9697
-4.7623 5.7987 -3.0711 0.9681
-7.7386 5.4796 -3.8809 0.9598
-9.7159 5.6549 -4.6010 0.9526
-18.3214 4.8742 -7.7593 0.9213
-25.2896 2.0773 -10.3853 0.8961
-24.0929 -4.5121 -10.0321 0.8995
-22.4689 -6.3192 -9.5527 0.9040
-19.4094 -7.3766 -8.4982 0.9142
-14.2065 -6.9016 -6.4642 0.9340
-4.7136 -7.1259 -3.4968 0.9637
-2.8734 -8.7495 -3.7692 0.9610
-0.2815 -5.6007 -2.2951 0.9761
0.2156 -5.5537 -2.2747 0.9763
0.7080 -5.5077 -2.2727 0.9763
1.2034 -5.4619 -2.2890 0.9761
2.1496 -5.1569 -2.2866 0.9761
2.4865 -4.7303 -2.1872 0.9772
3.0398 -3.9004 -2.0239 0.9789
3.2641 -3.4964 -1.9577 0.9795
3.4580 -3.0991 -1.9005 0.9801
3.8806 -1.9402 -1.7757 0.9814
3.9747 -1.5627 -1.7479 0.9817
4.0475 -1.1883 -1.7265 0.9819
4.1328 -0.4460 -1.7013 0.9822
4.1408 0.2926 -1.6989 0.9822
4.1160 0.6625 -1.7062 0.9821
4.0717 1.0336 -1.7193 0.9820
4.0074 1.4069 -1.7383 0.9818
3.9223 1.7830 -1.7634 0.9816
3.1369 3.7318 -1.9952 0.9792
2.8933 4.1399 -2.0671 0.9784
2.2949 4.9788 -2.2437 0.9766
1.9313 5.4101 -2.3511 0.9755
1.4606 5.6297 -2.3804 0.9752
-20.0850 -2.9787 -8.8492 0.9152
-19.0768 -4.5930 -8.5516 0.9179
-16.1146 -7.0869 -7.6722 0.9261
-12.2211 -6.7297 -6.0803 0.9409
-9.6504 -6.4949 -5.0696 0.9505
-7.6132 -6.1743 -4.2720 0.9581
-6.2561 -6.0717 -3.7995 0.9627
-5.1621 -5.9896 -3.4461 0.9661
-4.7231 -6.5838 -3.5313 0.9653
-4.3817 -7.4227 -3.7565 0.9631
-3.0492 -8.2202 -3.8210 0.9625
2.2378 -4.6795 -2.2606 0.9776
2.5404 -4.2856 -2.1713 0.9785
2.8062 -3.8967 -2.0928 0.9793
3.6874 -2.0217 -1.8327 0.9818
3.7893 -1.6582 -1.8027 0.9821
3.8700 -1.2974 -1.7788 0.9823
3.9303 -0.9387 -1.7610 0.9825
3.9709 -0.5815 -1.7491 0.9826
3.9924 -0.2254 -1.7427 0.9827
3.9430 0.8433 -1.7573 0.9826
3.8129 1.5618 -1.7957 0.9822
3.4567 2.6598 -1.9008 0.9811
3.0954 3.4112 -2.0075 0.9801
2.6148 4.1815 -2.1493 0.9787
2.3223 4.5740 -2.2356 0.9779
1.9901 4.9712 -2.3337 0.9769
0.6677 5.8478 -2.5651 0.9746
-0.4023 6.2415 -2.7258 0.9731
-1.5160 6.1302 -2.7521 0.9728
-2.0896 6.0719 -2.7986 0.9724
-3.3214 5.9447 -2.9678 0.9707
-4.0054 5.8730 -3.0982 0.9695
-4.7579 5.7934 -3.2672 0.9678
-5.6037 5.7031 -3.4845 0.9657
-19.8554 3.4285 -8.7814 0.9158
-20.5513 1.6881 -8.9868 0.9140
-20.7641 -0.1469 -9.0496 0.9134
-17.0741 -6.4890 -7.9605 0.9234
-14.2324 -6.9141 -6.8959 0.9333
-4.6987 -8.6964 -4.3079 0.9578
-0.7924 -5.6537 -2.4880 0.9754
2.0457 -4.9078 -2.3173 0.9771
2.3714 -4.5112 -2.2212 0.9780
2.6579 -4.1195 -2.1366 0.9788
2.9091 -3.7327 -2.0625 0.9796
3.1282 -3.3508 -1.9978 0.9802
3.3180 -2.9736 -1.9418 0.9807
3.6188 -2.2319 -1.8530 0.9816
3.7335 -1.8667 -1.8191 0.9820
3.8262 -1.5043 -1.7918 0.9822
3.9824 -0.4298 -1.7457 0.9827
3.9958 -0.0739 -1.7417 0.9827
3.9903 0.2820 -1.7433 0.9827
3.8585 1.3546 -1.7822 0.9823
3.5411 2.4472 -1.8759 0.9814
3.3888 2.8183 -1.9209 0.9810
3.0038 3.5736 -2.0345 0.9798
2.7663 3.9583 -2.1046 0.9791
2.4949 4.3480 -2.1847 0.9784
2.1860 4.7425 -2.2759 0.9775
1.8355 5.1417 -2.3793 0.9765
0.9359 5.6268 -2.4859 0.9754
0.4565 6.0115 -2.6274 0.9740
-16.1418 -3.8863 -7.6853 0.9294
-13.8754 -6.1021 -7.0164 0.9354
-7.6206 -6.1803 -4.5417 0.9577
-6.2615 -6.0770 -4.0390 0.9623
-5.1661 -5.9942 -3.6629 0.9657
-4.2587 -7.2143 -3.8778 0.9637
-3.7358 -7.8489 -4.0237 0.9624
-2.8201 -7.6025 -3.7534 0.9649
-0.4973 -5.6297 -2.6160 0.9754
0.0051 -5.5819 -2.5838 0.9757
1.8036 -4.8351 -2.3887 0.9775
2.1351 -4.4648 -2.2909 0.9784
2.4284 -4.0965 -2.2043 0.9792
2.6867 -3.7307 -2.1281 0.9799
3.1106 -3.0079 -2.0030 0.9811
3.4268 -2.2972 -1.9097 0.9820
3.6494 -1.5970 -1.8439 0.9826
3.7289 -1.2501 -1.8205 0.9828
3.8285 -0.5607 -1.7911 0.9831
3.8498 -0.2173 -1.7848 0.9831
3.8522 0.1258 -1.7841 0.9832
3.8361 0.4691 -1.7889 0.9831
3.8010 0.8130 -1.7992 0.9830
3.6727 1.5043 -1.8371 0.9827
3.5779 1.8527 -1.8650 0.9824
3.4616 2.2033 -1.8994 0.9821
3.3224 2.5565 -1.9405 0.9817
3.1587 2.9125 -1.9888 0.9812
2.7501 3.6337 -2.1094 0.9801
1.5338 5.1073 -2.4684 0.9768
1.1260 5.4781 -2.5887 0.9757
0.6345 5.5562 -2.5886 0.9757
0.1448 5.8731 -2.7194 0.9744
-0.9558 6.1816 -2.8954 0.9728
-1.5148 6.1254 -2.9208 0.9726
-2.0880 6.0671 -2.9700 0.9721
-3.3186 5.9397 -3.1494 0.9705
-4.0019 5.8678 -3.2877 0.9692
-6.5703 5.5922 -3.9938 0.9627
-7.7206 5.4668 -4.3789 0.9592
-9.6944 5.6425 -5.1921 0.9518
-11.6619 5.4628 -5.9610 0.9448
-13.9900 5.0916 -6.8913 0.9365
-15.0359 4.0001 -7.2020 0.9337
-17.2543 1.4173 -8.0137 0.9265
-17.4134 -0.1232 -8.0606 0.9261
-16.6174 -3.1121 -7.8257 0.9282
-15.7304 -4.4241 -7.5639 0.9305
-14.6025 -5.5497 -7.2310 0.9335
-13.3099 -6.4659 -6.8495 0.9369
-11.0275 -6.6290 -5.9558 0.9449
-4.7692 -5.9776 -3.5397 0.9669
-4.3044 -7.9667 -4.1915 0.9609
-3.3347 -7.7498 -3.9053 0.9635
-1.3265 -5.7098 -2.7133 0.9745
-0.2819 -5.6091 -2.5996 0.9755
0.7090 -5.5159 -2.5742 0.9758
1.1940 -5.4192 -2.5686 0.9758
1.5943 -5.0482 -2.4505 0.9769
1.9497 -4.6773 -2.3456 0.9779
2.2644 -4.3078 -2.2527 0.9788
2.7869 -3.5759 -2.0985 0.9802
3.1864 -2.8557 -1.9806 0.9813
3.5944 -1.7971 -1.8602 0.9824
3.8078 -0.7582 -1.7972 0.9830
3.8399 -0.4144 -1.7877 0.9831
3.8531 -0.0712 -1.7838 0.9832
3.8477 0.2719 -1.7854 0.9831
3.7177 1.3052 -1.8238 0.9828
3.5312 2.0016 -1.8788 0.9823
3.2558 2.7077 -1.9601 0.9815
3.0812 3.0650 -2.0117 0.9810
2.8792 3.4254 -2.0713 0.9805
2.6478 3.7887 -2.1396 0.9798
1.3661 5.2652 -2.5179 0.9763
0.4310 5.6762 -2.6349 0.9752
-13.9503 -3.3587 -7.0385 0.9381
-12.1350 -5.3367 -6.5027 0.9426
-11.0300 -6.0738 -6.1766 0.9454
-7.6281 -6.1863 -4.8176 0.9572
-6.2670 -6.0823 -4.2839 0.9618
-4.4774 -6.2413 -3.7678 0.9664
-2.6191 -7.0608 -3.6941 0.9670
-1.5643 -5.7376 -2.9171 0.9739
-1.0176 -5.6842 -2.8325 0.9746
-0.4977 -5.6341 -2.7744 0.9751
0.0051 -5.5862 -2.7401 0.9754
0.4996 -5.5397 -2.7284 0.9755
