ply
format ascii 1.0
element vertex 1588
property float32 x
property float32 y
property float32 z
property float32 I
end_header
-6.1756 -8.5390 1.8581 0.9581
-5.7517 -9.6658 1.9832 0.9553
-5.2381 -10.9156 2.1348 0.9520
-1.5495 -5.6275 1.0292 0.9766
-1.0111 -5.5780 0.9996 0.9772
1.7088 -19.1987 3.3986 0.9247
3.4599 -19.2166 3.4429 0.9238
5.2249 -19.0641 3.4855 0.9229
8.9649 -18.7388 3.6628 0.9191
11.0142 -18.5594 3.8054 0.9161
13.2475 -18.3630 3.9925 0.9121
15.7320 -18.1437 4.2344 0.9071
7.1910 -4.7980 1.5243 0.9655
8.5590 -4.6650 1.7188 0.9612
28.3826 -12.3242 5.4560 0.8819
16.5278 -3.8861 2.9938 0.9334
23.0949 -3.2914 4.1134 0.9096
25.4964 8.0343 4.7136 0.8971
11.7731 7.6021 2.4711 0.9447
9.4287 7.3588 2.1089 0.9526
5.1498 6.9169 1.5205 0.9656
4.1860 6.8180 1.4107 0.9680
3.3460 6.7322 1.3256 0.9699
2.5961 6.6558 1.2597 0.9714
1.2758 6.5222 1.1718 0.9734
0.6731 6.4617 1.1455 0.9740
0.0924 6.4035 1.1292 0.9743
-0.4765 6.3469 1.1223 0.9745
-1.0429 6.2907 1.1244 0.9744
-1.6162 6.2341 1.1356 0.9742
-2.8226 6.1160 1.1877 0.9730
-4.1916 5.9830 1.2881 0.9708
-5.6066 5.5569 1.3919 0.9684
-6.3462 5.2546 1.4528 0.9671
-7.3986 4.1662 1.4972 0.9661
-7.5341 3.3961 1.4572 0.9670
-7.7184 1.9278 1.4028 0.9682
-7.8007 0.5158 1.3785 0.9687
-7.8063 -0.1822 1.3768 0.9688
-7.6806 -2.3040 1.4139 0.9680
-7.5881 -3.0378 1.4412 0.9673
-7.4672 -3.7946 1.4769 0.9666
-6.7054 -6.1011 1.5985 0.9638
-6.5809 -7.1613 1.7149 0.9613
-5.8916 -9.3050 1.9419 0.9563
-5.4080 -10.5136 2.0847 0.9531
-0.0845 6.3815 0.9777 0.9745
-0.6513 6.3252 0.9741 0.9746
-3.6903 6.0268 1.0826 0.9718
-5.2119 5.8456 1.1998 0.9688
-7.5617 4.8955 1.3800 0.9642
-7.8595 4.1437 1.3611 0.9647
-7.9814 3.3352 1.3252 0.9656
-8.0751 2.5551 1.2975 0.9663
-8.1869 1.0514 1.2645 0.9671
-8.2079 0.3150 1.2583 0.9673
-8.1821 -1.1562 1.2659 0.9671
-7.9659 -3.4477 1.3297 0.9655
-7.4872 -6.0121 1.4710 0.9619
-6.7690 -6.5104 1.4388 0.9627
-6.9624 -8.0106 1.6259 0.9580
-6.1892 -10.4010 1.8541 0.9522
-5.6694 -11.8146 2.0075 0.9484
-2.1269 -5.6841 0.9297 0.9757
-1.0118 -5.5817 0.8690 0.9773
1.7247 -19.3772 2.9802 0.9243
3.4619 -19.2278 2.9930 0.9240
7.0529 -18.9173 3.0929 0.9215
8.9705 -18.7504 3.1843 0.9193
11.0213 -18.5713 3.3083 0.9163
13.2565 -18.3754 3.4711 0.9124
7.1982 -4.8028 1.3256 0.9656
8.5687 -4.6703 1.4950 0.9613
22.7965 -9.8986 3.8073 0.9043
16.5604 -3.8937 2.6061 0.9335
21.7132 6.8421 3.4876 0.9120
20.3646 8.4813 3.3795 0.9146
11.7556 7.5908 2.1437 0.9449
9.4166 7.3494 1.8299 0.9528
6.2802 7.0269 1.4437 0.9626
5.1450 6.9105 1.3198 0.9657
4.1824 6.8122 1.2246 0.9682
3.3433 6.7268 1.1508 0.9701
1.2749 6.5176 1.0174 0.9735
0.0924 6.3991 0.9804 0.9744
-0.4761 6.3426 0.9744 0.9746
-1.0422 6.2864 0.9762 0.9745
-2.2043 6.1720 1.0040 0.9738
-2.8206 6.1116 1.0312 0.9731
-3.4767 6.0476 1.0686 0.9722
-4.9762 5.9021 1.1826 0.9692
-7.2878 5.0096 1.3548 0.9648
-7.8156 4.4010 1.3741 0.9644
-7.9468 3.5821 1.3354 0.9653
-8.0489 2.7941 1.3052 0.9661
-8.1758 1.2808 1.2678 0.9671
-8.2038 0.5425 1.2595 0.9673
-8.0747 -2.4222 1.2914 0.9665
-7.9990 -3.2023 1.3199 0.9657
-7.8821 -4.0054 1.3545 0.9649
-7.7344 -4.8440 1.3981 0.9637
-6.6844 -7.2740 1.5134 0.9608
-6.7289 -8.7818 1.6948 0.9562
-6.3297 -9.9970 1.8126 0.9532
-1.2177 6.2648 0.8311 0.9746
-1.7941 6.2079 0.8415 0.9743
-5.2353 5.8717 1.0244 0.9688
-8.3210 4.3869 1.2249 0.9628
-8.5163 2.6946 1.1632 0.9646
-8.2682 0.3172 1.0775 0.9672
-8.1284 -1.1486 1.0690 0.9674
-8.0620 -1.8855 1.0782 0.9672
-7.9966 -2.6421 1.0967 0.9666
-7.9309 -3.4327 1.1253 0.9657
-7.5440 -6.0577 1.2599 0.9617
-7.4564 -8.5789 1.4801 0.9552
-6.6949 -11.2508 1.7049 0.9486
-6.1745 -12.8670 1.8585 0.9441
-0.4995 -5.5379 0.7241 0.9778
-0.0038 -6.4621 0.8415 0.9743
7.0571 -18.9286 2.6306 0.9217
18.5886 -17.9208 3.3623 0.9011
7.2054 -4.8076 1.1280 0.9657
8.5783 -4.6755 1.2722 0.9614
17.7302 -0.9262 2.3120 0.9309
17.7207 0.6590 2.3092 0.9310
17.8245 2.2676 2.3398 0.9301
18.4159 5.8031 2.5144 0.9251
17.9260 7.4658 2.5287 0.9247
15.0691 7.9217 2.2169 0.9336
9.4048 7.3402 1.5535 0.9530
7.6547 7.1610 1.3650 0.9586
5.1404 6.9043 1.1209 0.9659
4.1789 6.8064 1.0401 0.9683
1.2740 6.5130 0.8642 0.9736
-0.4758 6.3383 0.8277 0.9747
-2.8186 6.1072 0.8759 0.9732
-3.4741 6.0431 0.9077 0.9723
-5.8026 5.7511 1.0639 0.9676
-8.2791 4.6620 1.2373 0.9624
-8.4040 3.7882 1.2004 0.9635
-8.5010 2.9510 1.1718 0.9644
-8.3689 1.3110 1.1031 0.9664
-8.2912 0.5482 1.0820 0.9670
-8.0824 -1.6559 1.0743 0.9673
-7.8849 -4.0069 1.1517 0.9650
-7.8162 -4.8953 1.2010 0.9635
-6.9041 -6.2819 1.2155 0.9630
-6.7905 -7.3895 1.3069 0.9603
-7.2280 -9.4331 1.5475 0.9532
-0.0844 6.3729 0.6844 0.9747
-0.6504 6.3167 0.6819 0.9748
-1.7929 6.2037 0.6934 0.9744
-3.0145 6.0835 0.7291 0.9731
-4.4161 5.9463 0.7953 0.9706
-5.2309 5.8669 0.8440 0.9689
-6.1438 5.7612 0.9044 0.9667
-6.9601 5.4455 0.9490 0.9651
-7.8629 5.0904 1.0058 0.9630
-8.2830 0.3178 0.8901 0.9672
-8.2818 -0.4229 0.8905 0.9672
-8.2627 -1.1676 0.8961 0.9670
-8.1688 -2.6990 0.9238 0.9660
-8.0912 -3.5020 0.9467 0.9652
-7.9902 -4.3426 0.9765 0.9641
-7.8626 -5.2326 1.0142 0.9627
-7.5500 -6.0625 1.0397 0.9618
-6.7744 -14.1171 1.6814 0.9389
-1.5526 -5.6388 0.6280 0.9767
-1.0131 -5.5889 0.6099 0.9774
-0.4998 -5.5414 0.5974 0.9779
-0.0034 -5.8432 0.6274 0.9768
1.7267 -19.3995 2.0914 0.9246
3.4659 -19.2501 2.1003 0.9243
5.2341 -19.0977 2.1264 0.9234
7.0614 -18.9398 2.1706 0.9219
8.9815 -18.7735 2.2348 0.9197
13.2743 -18.4001 2.4363 0.9128
6.8718 -5.5315 0.9473 0.9651
7.2125 -4.8123 0.9310 0.9657
8.5879 -4.6807 1.0502 0.9614
16.4029 -7.1224 1.9202 0.9306
14.8028 -4.9103 1.6747 0.9392
15.8032 -3.7156 1.7432 0.9368
15.6472 -2.2299 1.6972 0.9384
15.5689 -0.8134 1.6741 0.9392
15.5629 0.5788 1.6723 0.9393
15.7711 3.4589 1.7338 0.9371
9.3930 7.3310 1.2795 0.9532
7.6463 7.1531 1.1243 0.9588
6.2678 7.0129 1.0100 0.9629
5.1357 6.8980 0.9235 0.9660
4.1754 6.8008 0.8569 0.9684
3.3380 6.7162 0.8053 0.9703
1.9078 6.5721 0.7349 0.9728
1.2731 6.5085 0.7121 0.9737
0.6718 6.4483 0.6962 0.9743
-4.1819 5.9691 0.7826 0.9711
-4.9680 5.8925 0.8276 0.9695
-6.6993 5.5470 0.9340 0.9656
-7.5724 5.2053 0.9867 0.9637
-8.5519 4.8156 1.0539 0.9613
-8.5812 3.8680 1.0107 0.9628
-8.4808 2.9439 0.9640 0.9645
-8.2840 -0.1934 0.8898 0.9672
-8.2705 -0.9362 0.8938 0.9671
-8.1176 -3.2498 0.9389 0.9654
-8.0241 -4.0777 0.9665 0.9644
-7.7568 -5.8832 1.0454 0.9616
-6.8031 -7.4033 1.0797 0.9604
-0.0843 6.3687 0.5392 0.9748
-2.3867 6.1408 0.5577 0.9739
-3.0124 6.0791 0.5743 0.9731
-3.6821 6.0133 0.5969 0.9721
-8.0213 5.1930 0.8089 0.9624
-8.7336 1.9262 0.7571 0.9647
-8.7644 1.1255 0.7480 0.9651
-8.7790 0.3368 0.7437 0.9653
-8.7611 -1.2380 0.7490 0.9651
-8.7279 -2.0413 0.7588 0.9647
-8.6084 -3.7259 0.7940 0.9630
-7.5561 -6.0673 0.8203 0.9618
-6.7851 -6.5258 0.7969 0.9629
-7.5860 -10.4893 1.0958 0.9494
-7.2388 -12.1648 1.1983 0.9448
-1.0137 -5.5926 0.4811 0.9774
-0.0033 -5.4987 0.4655 0.9782
1.7277 -19.4106 1.6497 0.9248
3.4679 -19.2612 1.6567 0.9244
7.0655 -18.9511 1.7121 0.9220
8.9870 -18.7850 1.7628 0.9198
15.7769 -18.1955 2.0387 0.9078
6.8138 -5.4847 0.7404 0.9655
14.3994 -6.2524 1.3289 0.9389
13.9336 -1.9857 1.1914 0.9451
13.8808 0.5162 1.1759 0.9458
13.9221 1.7711 1.1880 0.9452
14.0109 3.0729 1.2142 0.9440
14.1529 4.4598 1.2562 0.9422
13.8446 7.2780 1.3241 0.9391
9.3813 7.3218 1.0074 0.9534
7.6379 7.1452 0.8854 0.9589
6.2616 7.0060 0.7954 0.9630
5.1311 6.8918 0.7273 0.9661
4.1719 6.7951 0.6750 0.9685
3.3354 6.7109 0.6344 0.9704
2.5883 6.6358 0.6030 0.9718
1.9065 6.5674 0.5789 0.9729
0.6713 6.4439 0.5484 0.9743
0.0922 6.3863 0.5407 0.9747
-0.4752 6.3298 0.5373 0.9748
-1.0401 6.2738 0.5383 0.9748
-1.6118 6.2173 0.5437 0.9745
-2.8146 6.0986 0.5686 0.9734
-3.4690 6.0342 0.5892 0.9724
-4.9641 5.8877 0.6519 0.9696
-8.6227 4.8554 0.8377 0.9611
-8.5948 3.8741 0.7981 0.9629
-8.7566 1.3717 0.7503 0.9650
-8.7762 0.5802 0.7445 0.9653
-8.7680 -0.9924 0.7470 0.9652
-8.7400 -1.7906 0.7552 0.9648
-8.6320 -3.4557 0.7871 0.9634
-8.0428 -6.1000 0.8545 0.9603
-6.8046 -6.1914 0.7788 0.9637
-6.7385 -7.3330 0.8430 0.9608
-7.6781 -10.0205 1.0686 0.9506
-7.0245 -13.6563 1.3000 0.9402
-0.0843 6.3645 0.3947 0.9748
-0.6495 6.3083 0.3932 0.9749
-1.2152 6.2522 0.3950 0.9748
-1.7904 6.1953 0.3999 0.9745
-3.0102 6.0748 0.4204 0.9732
-4.4093 5.9371 0.4586 0.9708
-5.2223 5.8572 0.4866 0.9690
-9.2032 3.8456 0.6185 0.9608
-12.0484 -6.5481 0.8503 0.9465
-7.6054 -15.8490 1.0901 0.9320
-7.0639 -18.8784 1.2499 0.9224
-1.5546 -5.6463 0.3631 0.9768
-1.0144 -5.5962 0.3527 0.9775
5.2402 -19.1199 1.2294 0.9236
11.0494 -18.6187 1.3426 0.9169
13.2919 -18.4246 1.4088 0.9130
14.3902 -16.5960 1.3622 0.9157
12.8373 -5.5741 0.8678 0.9455
12.7104 -4.2161 0.8304 0.9477
12.6208 -2.9673 0.8040 0.9494
12.5630 -1.7903 0.7869 0.9504
12.5338 -0.6548 0.7783 0.9509
12.6090 2.7654 0.8005 0.9496
12.8130 5.3363 0.8607 0.9459
12.8444 6.7522 0.8998 0.9435
11.6869 7.5464 0.8627 0.9458
9.3696 7.3128 0.7370 0.9535
7.6296 7.1375 0.6479 0.9590
6.2554 6.9992 0.5821 0.9631
5.1265 6.8856 0.5323 0.9662
4.1685 6.7894 0.4940 0.9686
2.5863 6.6309 0.4413 0.9719
0.0921 6.3820 0.3958 0.9747
-0.4749 6.3256 0.3934 0.9749
-1.0394 6.2697 0.3941 0.9749
-5.8477 5.7959 0.5105 0.9675
-7.8772 5.4148 0.5927 0.9624
-8.9205 5.0232 0.6348 0.9598
-9.1826 4.1391 0.6246 0.9604
-9.2431 3.2086 0.6067 0.9615
-29.1309 -38.0179 2.9700 0.8253
-8.9544 -14.1423 1.0380 0.9351
-0.0842 6.3603 0.2508 0.9749
-0.6491 6.3042 0.2499 0.9749
-1.2144 6.2481 0.2510 0.9748
-2.3834 6.1323 0.2594 0.9740
-3.6766 6.0045 0.2776 0.9722
-4.4059 5.9325 0.2914 0.9709
-5.2181 5.8525 0.3092 0.9691
-6.1438 5.7613 0.3321 0.9668
-14.1429 5.9099 0.6044 0.9405
-17.6918 5.5980 0.7317 0.9284
-12.0646 -6.5569 0.5414 0.9465
-9.5461 -6.3529 0.4521 0.9551
-19.1438 -22.0258 1.1507 0.8897
-15.5667 -21.5240 1.0474 0.8991
-9.7548 -20.3279 0.8891 0.9137
-1.5557 -5.6500 0.2311 0.9768
-1.0150 -5.5998 0.2244 0.9775
-0.5008 -5.5519 0.2198 0.9779
-0.0033 -5.5055 0.2171 0.9782
5.2433 -19.1310 0.7822 0.9237
8.9979 -18.8079 0.8221 0.9199
11.0563 -18.6304 0.8542 0.9169
12.1536 -16.8455 0.8193 0.9202
12.4322 -14.3380 0.7483 0.9268
12.1522 -11.7154 0.6656 0.9347
6.7011 -5.3941 0.3392 0.9661
8.6165 -4.6963 0.3869 0.9615
11.5841 -5.0300 0.4980 0.9507
11.5181 -3.8206 0.4785 0.9526
11.4712 -2.6970 0.4646 0.9539
11.4408 -1.6304 0.4557 0.9548
11.4254 -0.5969 0.4511 0.9552
11.4372 1.4550 0.4546 0.9549
11.4650 2.5145 0.4628 0.9541
11.6562 6.1276 0.5193 0.9486
11.1282 7.1857 0.5223 0.9484
9.3581 7.3037 0.4681 0.9536
3.3302 6.7004 0.2950 0.9705
2.5844 6.6260 0.2804 0.9719
1.9038 6.5581 0.2693 0.9730
1.2704 6.4950 0.2610 0.9739
0.6704 6.4353 0.2551 0.9744
0.0921 6.3778 0.2515 0.9748
-0.4746 6.3215 0.2500 0.9749
-1.6096 6.2089 0.2529 0.9747
-2.1967 6.1508 0.2575 0.9742
-2.8107 6.0901 0.2645 0.9735
-4.9561 5.8783 0.3032 0.9697
-6.8715 5.6896 0.3518 0.9649
-9.1160 5.1333 0.4125 0.9590
-12.3433 5.5639 0.5339 0.9472
-10.2326 -6.4085 0.4761 0.9528
-6.6879 -6.0852 0.3565 0.9645
-10.4870 -20.3875 0.9040 0.9123
-0.0842 6.3561 0.1074 0.9749
-1.2136 6.2440 0.1074 0.9749
-2.3818 6.1282 0.1111 0.9740
-4.4025 5.9280 0.1247 0.9709
-5.2138 5.8477 0.1323 0.9691
-7.2205 5.6492 0.1549 0.9640
-8.5266 5.5201 0.1716 0.9602
-17.6646 5.5894 0.3130 0.9286
-7.5741 -6.0819 0.1641 0.9619
-15.5788 -21.5408 0.4490 0.8991
-12.2236 -20.5418 0.4038 0.9088
-7.5433 -20.1596 0.3636 0.9175
-1.0157 -5.6034 0.0962 0.9775
-0.5011 -5.5554 0.0942 0.9779
-0.0033 -5.5089 0.0930 0.9782
1.7306 -19.4438 0.3297 0.9249
3.4739 -19.2942 0.3312 0.9246
5.2463 -19.1420 0.3353 0.9237
7.0781 -18.9847 0.3423 0.9221
10.5406 -17.7612 0.3489 0.9207
10.8443 -12.5067 0.2796 0.9359
6.6464 -5.3500 0.1441 0.9664
8.6260 -4.7015 0.1659 0.9615
10.5320 -3.4935 0.1874 0.9566
10.4986 -0.5484 0.1776 0.9588
10.5028 1.3361 0.1788 0.9585
10.5287 3.3177 0.1865 0.9568
10.5811 5.5625 0.2019 0.9533
5.1173 6.8734 0.1447 0.9663
2.5825 6.6211 0.1200 0.9720
1.2696 6.4905 0.1117 0.9739
0.6699 6.4310 0.1092 0.9745
-0.4743 6.3173 0.1070 0.9750
-2.1953 6.1466 0.1102 0.9742
-5.8377 5.7860 0.1388 0.9677
-8.0928 5.5629 0.1659 0.9615
-10.1807 5.7329 0.1974 0.9543
-16.4188 5.6996 0.2936 0.9328
-13.0808 -6.6472 0.2478 0.9430
-8.0629 -6.1152 0.1709 0.9603
-6.6313 -6.0336 0.1514 0.9648
-16.5729 -21.6287 0.4603 0.8967
-1.2128 6.2399 -0.0358 0.9749
-3.0039 6.0620 -0.0381 0.9733
-4.3992 5.9235 -0.0415 0.9709
-6.1331 5.7512 -0.0473 0.9669
-7.2136 5.6439 -0.0516 0.9640
-8.5176 5.5143 -0.0571 0.9602
-10.7701 5.6782 -0.0686 0.9525
-13.1261 5.4850 -0.0801 0.9447
-12.0969 -6.5745 -0.0775 0.9464
-9.5675 -6.3671 -0.0647 0.9551
-7.5802 -6.0867 -0.0547 0.9619
-6.4655 -7.4388 -0.0555 0.9613
-9.7671 -20.3535 -0.1271 0.9137
-7.5479 -20.1717 -0.1213 0.9175
-1.0163 -5.6070 -0.0321 0.9775
-0.5014 -5.5589 -0.0314 0.9779
-0.0033 -5.5123 -0.0310 0.9782
1.7316 -19.4548 -0.1100 0.9248
3.4758 -19.3052 -0.1104 0.9245
5.2493 -19.1531 -0.1118 0.9236
9.5844 -13.2854 -0.0922 0.9366
9.6169 -11.0911 -0.0827 0.9430
6.5926 -5.3067 -0.0477 0.9667
9.7019 -3.2181 -0.0576 0.9599
9.7067 -2.2822 -0.0561 0.9609
9.7098 -1.3837 -0.0552 0.9615
5.6857 0.2114 -0.0320 0.9775
9.7102 1.2353 -0.0551 0.9616
9.7073 2.1290 -0.0559 0.9610
9.6881 5.0930 -0.0616 0.9572
9.6771 6.2487 -0.0649 0.9550
9.1374 7.1316 -0.0653 0.9547
7.6048 7.1143 -0.0586 0.9592
6.2372 6.9787 -0.0527 0.9633
3.3251 6.6900 -0.0421 0.9706
2.5806 6.6162 -0.0400 0.9720
1.9011 6.5488 -0.0384 0.9731
0.0920 6.3693 -0.0359 0.9748
-0.4740 6.3132 -0.0357 0.9750
-1.6075 6.2007 -0.0361 0.9747
-3.4591 6.0168 -0.0391 0.9726
-4.1661 5.9466 -0.0409 0.9714
-5.8328 5.7811 -0.0462 0.9677
-6.8588 5.6791 -0.0501 0.9650
-8.0846 5.5573 -0.0552 0.9615
-10.1708 5.7273 -0.0657 0.9544
-12.3157 5.5514 -0.0761 0.9474
-21.1082 5.2722 -0.1225 0.9167
-13.0996 -6.6568 -0.0827 0.9429
-6.4937 -7.0664 -0.0540 0.9623
-16.5861 -21.6460 -0.1535 0.8967
-13.0579 -20.6231 -0.1374 0.9070
-0.6478 6.2918 -0.1781 0.9750
-1.2120 6.2357 -0.1789 0.9749
-1.7856 6.1788 -0.1811 0.9746
-3.0018 6.0578 -0.1904 0.9733
-3.6686 5.9914 -0.1978 0.9723
-4.3958 5.9189 -0.2076 0.9709
-5.2054 5.8382 -0.2202 0.9692
-6.1278 5.7462 -0.2365 0.9669
-7.2068 5.6385 -0.2577 0.9640
-8.5087 5.5085 -0.2854 0.9603
-23.0546 5.0850 -0.6648 0.9099
-7.5862 -6.0916 -0.2740 0.9618
-6.4058 -7.3702 -0.2750 0.9617
-15.6031 -21.5743 -0.7497 0.8989
-9.7732 -20.3663 -0.6361 0.9136
-7.5524 -20.1838 -0.6068 0.9174
-0.0033 -5.5158 -0.1553 0.9782
1.7326 -19.4659 -0.5503 0.9248
7.0864 -19.0071 -0.5712 0.9220
8.1052 -16.9417 -0.5288 0.9276
8.5094 -11.7952 -0.4095 0.9435
8.6388 -9.9631 -0.3713 0.9486
7.2551 -4.8408 -0.2456 0.9657
8.9645 -3.8925 -0.2752 0.9616
9.0135 -2.1192 -0.2607 0.9636
9.0270 -1.2864 -0.2568 0.9642
9.0339 -0.4719 -0.2547 0.9644
6.2270 0.2315 -0.1755 0.9754
9.0286 1.1486 -0.2563 0.9642
8.9699 3.7357 -0.2736 0.9619
8.3482 6.5156 -0.2982 0.9585
6.2312 6.9720 -0.2633 0.9633
5.1083 6.8612 -0.2409 0.9663
3.3225 6.6849 -0.2102 0.9706
1.2678 6.4816 -0.1860 0.9739
-1.0367 6.2531 -0.1785 0.9750
-1.6064 6.1966 -0.1803 0.9747
-2.1922 6.1383 -0.1835 0.9743
-2.8048 6.0774 -0.1885 0.9736
-4.9443 5.8643 -0.2160 0.9698
-6.8525 5.6739 -0.2505 0.9650
-8.0764 5.5517 -0.2760 0.9615
-10.1609 5.7218 -0.3284 0.9544
-12.3019 5.5452 -0.3800 0.9474
-16.3718 5.6833 -0.4880 0.9330
-21.0704 5.2627 -0.6115 0.9168
-13.1183 -6.6663 -0.4143 0.9428
-10.2689 -6.4312 -0.3412 0.9527
-8.0762 -6.1254 -0.2854 0.9603
-0.0840 6.3436 -0.3217 0.9749
-1.2112 6.2317 -0.3220 0.9749
-1.7845 6.1746 -0.3260 0.9746
-2.3770 6.1157 -0.3328 0.9741
-2.9997 6.0536 -0.3426 0.9733
-4.3924 5.9144 -0.3736 0.9709
-6.1224 5.7412 -0.4257 0.9669
-7.1999 5.6332 -0.4636 0.9640
-8.4997 5.5027 -0.5135 0.9603
-10.7484 5.6667 -0.6162 0.9525
-12.1295 -6.5922 -0.7001 0.9462
-9.5890 -6.3814 -0.5842 0.9549
-15.0537 -20.8147 -1.3027 0.9022
-9.7794 -20.3791 -1.1464 0.9134
-1.5598 -5.6650 -0.2980 0.9767
-0.0032 -5.5193 -0.2799 0.9781
1.7336 -19.4770 -0.9917 0.9247
3.4798 -19.3273 -0.9959 0.9244
6.4841 -17.3915 -0.9413 0.9284
7.0786 -14.7960 -0.8318 0.9364
7.6502 -10.6043 -0.6631 0.9490
6.5728 -6.3368 -0.4630 0.9641
8.3799 -2.7796 -0.4478 0.9653
8.4121 -1.9778 -0.4382 0.9660
8.4332 -1.2018 -0.4320 0.9665
8.4440 -0.4411 -0.4288 0.9667
6.1060 0.2271 -0.3099 0.9758
8.4357 1.0732 -0.4313 0.9665
8.4164 1.8459 -0.4370 0.9661
8.3439 3.4750 -0.4584 0.9644
8.2880 4.3570 -0.4749 0.9632
5.1038 6.8551 -0.4334 0.9663
3.3199 6.6796 -0.3783 0.9706
1.2670 6.4772 -0.3347 0.9739
0.6686 6.4180 -0.3273 0.9745
-1.0360 6.2491 -0.3212 0.9749
-1.6054 6.1925 -0.3244 0.9747
-2.8029 6.0732 -0.3392 0.9736
-3.4541 6.0082 -0.3515 0.9726
-4.9403 5.8596 -0.3887 0.9698
-5.8228 5.7712 -0.4158 0.9677
-8.0681 5.5460 -0.4965 0.9615
-15.2487 5.2934 -0.8186 0.9374
-21.0326 5.2532 -1.0994 0.9168
-13.1372 -6.6759 -0.7473 0.9427
-10.2810 -6.4389 -0.6152 0.9526
-6.3779 -6.9405 -0.4780 0.9630
-16.6127 -21.6807 -1.3852 0.8964
-10.5138 -20.4397 -1.1657 0.9121
-1.2104 6.2275 -0.4652 0.9749
-2.9976 6.0493 -0.4950 0.9733
-3.6633 5.9827 -0.5144 0.9723
-5.1970 5.8287 -0.5726 0.9692
-7.1931 5.6278 -0.6697 0.9640
-10.7375 5.6610 -0.8900 0.9525
-16.3980 5.1887 -1.2611 0.9333
-22.9649 5.0653 -1.7243 0.9100
-12.1459 -6.6012 -1.0136 0.9461
-7.5983 -6.1013 -0.7145 0.9617
-6.3867 -6.1426 -0.6497 0.9651
-6.2894 -7.2363 -0.7030 0.9623
-15.0646 -20.8296 -1.8849 0.9020
-12.2563 -20.5966 -1.7574 0.9083
-9.7855 -20.3920 -1.6584 0.9133
-7.5614 -20.2081 -1.5820 0.9171
-1.0183 -5.6178 -0.4186 0.9774
-0.5024 -5.5694 -0.4100 0.9778
-0.0033 -5.5227 -0.4049 0.9781
1.7346 -19.4881 -1.4346 0.9245
3.4818 -19.3384 -1.4407 0.9242
5.7839 -15.5134 -1.2140 0.9358
6.2812 -13.1292 -1.0672 0.9433
6.6566 -11.2167 -0.9564 0.9490
6.9471 -9.6297 -0.8706 0.9535
7.7143 -4.2045 -0.6442 0.9654
7.7877 -3.3816 -0.6225 0.9665
7.8439 -2.6019 -0.6059 0.9674
7.8847 -1.8538 -0.5939 0.9680
7.9116 -1.1275 -0.5860 0.9685
7.9254 -0.4140 -0.5819 0.9687
7.9264 0.2948 -0.5816 0.9687
7.9148 1.0069 -0.5850 0.9685
7.7983 3.2478 -0.6194 0.9667
7.7280 4.0626 -0.6402 0.9656
7.6382 4.9321 -0.6667 0.9642
6.9830 6.5326 -0.7011 0.9624
6.2191 6.9584 -0.6843 0.9633
5.0992 6.8490 -0.6261 0.9663
4.1479 6.7559 -0.5813 0.9687
3.3173 6.6745 -0.5465 0.9705
-1.0354 6.2449 -0.4641 0.9749
-2.8009 6.0689 -0.4901 0.9735
-4.1567 5.9332 -0.5312 0.9714
-4.9364 5.8549 -0.5615 0.9698
-5.8179 5.7663 -0.6006 0.9677
-6.8399 5.6634 -0.6511 0.9650
-12.2744 5.5328 -0.9872 0.9474
-15.2282 5.2863 -1.1819 0.9374
-20.9949 5.2438 -1.5867 0.9169
-13.1562 -6.6855 -1.0821 0.9425
-10.2932 -6.4465 -0.8905 0.9525
-8.0897 -6.1356 -0.7445 0.9601
-6.3214 -6.8790 -0.6850 0.9632
-13.0846 -20.6654 -1.7934 0.9066
-10.5206 -20.4529 -1.6864 0.9119
-0.0839 6.3351 -0.6083 0.9749
-1.2096 6.2234 -0.6087 0.9748
-1.7821 6.1664 -0.6162 0.9745
-3.6606 5.9782 -0.6730 0.9722
-4.3857 5.9053 -0.7062 0.9709
-10.7266 5.6553 -1.1642 0.9524
-13.0643 5.4592 -1.3593 0.9447
-16.3744 5.1812 -1.6489 0.9333
-22.9201 5.0554 -2.2533 0.9100
-32.5329 4.1780 -3.1490 0.8765
-12.1625 -6.6101 -1.3290 0.9459
-9.6107 -6.3959 -1.1083 0.9547
-7.6044 -6.1062 -0.9363 0.9616
-6.3333 -6.0912 -0.8436 0.9653
-7.5660 -20.2203 -2.0727 0.9169
-1.5619 -5.6726 -0.5649 0.9766
-1.0190 -5.6214 -0.5485 0.9773
-0.5027 -5.5729 -0.5372 0.9778
5.6434 -11.7961 -1.2554 0.9488
6.6133 -7.6271 -0.9692 0.9602
7.3709 -2.4450 -0.7455 0.9693
7.4653 -0.3900 -0.7177 0.9704
5.1574 0.1918 -0.4955 0.9795
7.4531 0.9481 -0.7213 0.9703
7.3800 2.3255 -0.7429 0.9694
7.3183 3.0479 -0.7611 0.9686
7.2373 3.8046 -0.7850 0.9677
6.2130 6.9517 -0.8951 0.9632
5.0947 6.8429 -0.8190 0.9663
1.8957 6.5303 -0.6528 0.9730
0.6677 6.4094 -0.6187 0.9744
-1.0346 6.2408 -0.6073 0.9749
-2.7990 6.0647 -0.6413 0.9735
-3.4491 5.9996 -0.6644 0.9726
-4.9325 5.8502 -0.7346 0.9697
-5.8129 5.7614 -0.7858 0.9676
-6.8335 5.6582 -0.8518 0.9650
-8.0517 5.5347 -0.9380 0.9615
-12.2606 5.5266 -1.2911 0.9474
-20.9571 5.2344 -2.0738 0.9169
-28.8283 4.5162 -2.8014 0.8894
-8.0965 -6.1407 -0.9756 0.9600
-6.2657 -6.8184 -0.8890 0.9635
-13.0936 -20.6795 -2.3498 0.9063
-0.6461 6.2752 -0.7494 0.9749
-2.9933 6.0407 -0.8008 0.9732
-3.6579 5.9739 -0.8321 0.9722
-5.1884 5.8192 -0.9261 0.9691
-6.1063 5.7261 -0.9944 0.9668
-7.1794 5.6171 -1.0828 0.9639
-8.4728 5.4853 -1.1990 0.9602
-10.7157 5.6495 -1.4390 0.9524
-13.0487 5.4527 -1.6799 0.9446
-16.3509 5.1737 -2.0372 0.9333
-12.1791 -6.6191 -1.6466 0.9457
-7.6106 -6.1112 -1.1594 0.9614
-6.2805 -6.0405 -1.0351 0.9655
-6.1765 -7.1064 -1.1184 0.9628
-12.2728 -20.6244 -2.8508 0.9079
-1.5629 -5.6763 -0.6994 0.9766
-1.0196 -5.6251 -0.6791 0.9772
-0.0033 -5.5296 -0.6568 0.9780
3.0254 -16.8035 -2.0281 0.9335
3.9233 -14.3148 -1.7631 0.9420
4.5988 -12.3348 -1.5637 0.9484
5.5334 -9.3239 -1.2879 0.9573
5.8635 -8.1276 -1.1905 0.9604
6.3481 -6.1200 -1.0474 0.9651
6.6699 -4.4502 -0.9525 0.9682
6.7863 -3.6987 -0.9181 0.9693
5.3061 0.1973 -0.6307 0.9788
7.0405 0.8957 -0.8431 0.9718
7.0090 1.5372 -0.8524 0.9715
6.3805 5.9689 -1.0379 0.9654
5.8347 6.5284 -1.0401 0.9653
4.1410 6.7447 -0.9401 0.9686
2.5711 6.5918 -0.8405 0.9719
0.6673 6.4051 -0.7650 0.9744
0.0916 6.3483 -0.7542 0.9748
-0.4724 6.2924 -0.7496 0.9749
-1.0340 6.2367 -0.7509 0.9749
-2.7970 6.0605 -0.7929 0.9735
-5.8079 5.7564 -0.9714 0.9676
-8.0435 5.5291 -1.1594 0.9614
-10.1216 5.6996 -1.3798 0.9543
-20.9194 5.2250 -2.5613 0.9168
-10.3179 -6.4620 -1.4462 0.9521
-6.2107 -6.7586 -1.0903 0.9637
-16.0452 -20.9401 -3.1337 0.8992
-10.5342 -20.4793 -2.7356 0.9114
-0.0837 6.3267 -0.8965 0.9748
-0.6457 6.2710 -0.8932 0.9749
-2.3704 6.0989 -0.9271 0.9739
-3.6552 5.9695 -0.9918 0.9721
-5.1842 5.8145 -1.1038 0.9690
-6.1010 5.7211 -1.1851 0.9668
-7.1725 5.6117 -1.2904 0.9639
-10.7048 5.6437 -1.7147 0.9523
-22.8303 5.0355 -3.3126 0.9099
-16.0776 -6.9585 -2.4822 0.9317
-12.1958 -6.6283 -1.9667 0.9455
-7.6168 -6.1161 -1.3841 0.9613
-6.2592 -6.0200 -1.2305 0.9655
-7.5752 -20.2450 -3.0627 0.9164
-1.5640 -5.6802 -0.8348 0.9765
0.5546 -6.2314 -0.8864 0.9750
3.5143 -12.8225 -1.8838 0.9477
4.6852 -9.7932 -1.5382 0.9571
5.0998 -8.5933 -1.4159 0.9604
5.4363 -7.5355 -1.3165 0.9632
5.7115 -6.5871 -1.2353 0.9654
6.1233 -4.9289 -1.1138 0.9687
6.4967 -2.8210 -1.0036 0.9718
6.6650 -0.9498 -0.9539 0.9732
5.7434 0.2136 -0.8143 0.9770
6.6694 0.8485 -0.9526 0.9732
6.6357 1.4553 -0.9626 0.9729
6.2980 4.0667 -1.0622 0.9702
6.1511 4.8008 -1.1056 0.9690
5.9714 5.5863 -1.1586 0.9675
5.0855 6.8306 -1.2066 0.9662
2.5692 6.5869 -1.0018 0.9718
1.2635 6.4594 -0.9326 0.9738
0.0916 6.3440 -0.8990 0.9747
-1.0333 6.2325 -0.8951 0.9748
-1.6011 6.1759 -0.9040 0.9746
-2.1848 6.1175 -0.9204 0.9741
-2.7951 6.0562 -0.9451 0.9734
-3.4440 5.9908 -0.9791 0.9725
-4.9245 5.8409 -1.0825 0.9696
-5.8029 5.7514 -1.1576 0.9675
-6.8208 5.6476 -1.2547 0.9649
-8.0352 5.5234 -1.3816 0.9614
-10.1117 5.6940 -1.6443 0.9542
-20.8816 5.2156 -3.0496 0.9167
-13.2139 -6.7148 -2.1002 0.9419
-6.1564 -6.6995 -1.2892 0.9639
-16.0572 -20.9557 -3.7407 0.8988
-13.1117 -20.7081 -3.4728 0.9057
-10.5411 -20.4927 -3.2652 0.9111
-0.0837 6.3224 -1.0417 0.9747
-0.6453 6.2668 -1.0379 0.9748
-1.2072 6.2110 -1.0423 0.9747
-2.3687 6.0946 -1.0772 0.9738
-3.6525 5.9650 -1.1523 0.9720
-4.3755 5.8916 -1.2090 0.9707
-5.1799 5.8096 -1.2823 0.9689
-8.4547 5.4736 -1.6592 0.9600
-16.3036 5.1588 -2.8171 0.9330
-22.7853 5.0256 -3.8439 0.9097
-32.2663 4.1437 -5.3592 0.8764
-16.1058 -6.9707 -2.8911 0.9313
-12.2127 -6.6375 -2.2899 0.9452
-9.6438 -6.4179 -1.9084 0.9541
-15.1084 -20.8903 -4.2472 0.9008
-9.8106 -20.4443 -3.7357 0.9122
-7.5799 -20.2575 -3.5632 0.9161
-1.5650 -5.6840 -0.9712 0.9764
-0.5037 -5.5837 -0.9236 0.9775
-0.0033 -5.5366 -0.9121 0.9778
3.1805 -11.6050 -1.9823 0.9524
3.8098 -10.2186 -1.7966 0.9568
4.3156 -9.0205 -1.6473 0.9603
5.3439 -6.1631 -1.3438 0.9675
5.7657 -4.6410 -1.2193 0.9704
6.0507 -3.2977 -1.1352 0.9725
6.1529 -2.6716 -1.1051 0.9732
6.2321 -2.0671 -1.0817 0.9737
6.2903 -1.4789 -1.0645 0.9741
6.2981 1.3813 -1.0622 0.9742
6.1677 2.5687 -1.1007 0.9733
6.0696 3.1907 -1.1296 0.9726
5.9462 3.8396 -1.1660 0.9717
5.7943 4.5223 -1.2109 0.9706
5.6095 5.2477 -1.2654 0.9693
5.3626 6.0002 -1.3257 0.9679
4.8373 6.4973 -1.3344 0.9677
4.1341 6.7334 -1.3016 0.9685
3.3069 6.6536 -1.2240 0.9703
-0.4717 6.2840 -1.0381 0.9748
-2.1833 6.1133 -1.0694 0.9740
-2.7931 6.0520 -1.0981 0.9733
-4.9205 5.8361 -1.2576 0.9695
-5.7979 5.7465 -1.3448 0.9674
-6.8144 5.6423 -1.4575 0.9648
-8.0269 5.5177 -1.6046 0.9613
-10.1017 5.6884 -1.9099 0.9541
-12.2189 5.5079 -2.2080 0.9471
-28.6178 4.4832 -4.7720 0.8892
-44.8912 2.9685 -7.4115 0.8333
-13.2335 -6.7248 -2.4454 0.9416
-8.1171 -6.1564 -1.6783 0.9595
-6.1027 -6.6411 -1.4858 0.9641
-0.0837 6.3182 -1.1877 0.9746
-0.6448 6.2626 -1.1834 0.9747
-1.2063 6.2067 -1.1885 0.9746
-1.7772 6.1496 -1.2032 0.9743
-2.3671 6.0904 -1.2282 0.9738
-5.1756 5.8048 -1.4618 0.9688
-6.0901 5.7109 -1.5693 0.9666
-10.6828 5.6321 -2.2699 0.9520
-13.0019 5.4331 -2.6486 0.9443
-16.2797 5.1512 -3.2095 0.9329
-21.3676 4.7129 -4.1128 0.9148
-32.1771 4.1323 -6.0977 0.8763
-16.1342 -6.9830 -3.3045 0.9309
-7.6293 -6.1262 -1.8391 0.9610
-6.0122 -6.9174 -1.7227 0.9634
-15.1196 -20.9058 -4.8495 0.9003
-7.5846 -20.2700 -4.0680 0.9157
-1.5661 -5.6879 -1.1089 0.9763
-1.0216 -5.6363 -1.0766 0.9770
-0.5040 -5.5873 -1.0545 0.9774
0.4890 -5.4941 -1.0368 0.9778
3.5059 -9.4034 -1.8863 0.9600
3.9977 -8.3562 -1.7411 0.9630
5.0185 -5.7878 -1.4399 0.9693
5.2515 -5.0628 -1.3711 0.9707
5.4453 -4.3831 -1.3139 0.9720
5.9229 -1.9646 -1.1729 0.9749
6.0227 -0.8583 -1.1435 0.9755
6.0432 -0.3157 -1.1374 0.9757
5.7323 0.2132 -1.0782 0.9769
5.7558 3.0258 -1.2222 0.9739
5.6295 3.6350 -1.2595 0.9731
5.4745 4.2727 -1.3053 0.9721
5.2867 4.9457 -1.3607 0.9710
5.0607 5.6623 -1.4274 0.9696
4.5289 6.0831 -1.4255 0.9696
4.1305 6.7278 -1.4839 0.9684
3.3043 6.6483 -1.3955 0.9702
2.5653 6.5770 -1.3269 0.9717
1.2617 6.4503 -1.2354 0.9736
0.0915 6.3355 -1.1910 0.9745
-0.4714 6.2798 -1.1837 0.9747
-2.7911 6.0476 -1.2519 0.9733
-3.4390 5.9820 -1.2970 0.9723
-5.7928 5.7415 -1.5330 0.9673
-8.0186 5.5119 -1.8289 0.9612
-44.7200 2.9571 -8.4240 0.8333
-13.2532 -6.7348 -2.7943 0.9413
-8.3209 -6.3109 -1.9630 0.9584
-6.0496 -6.5832 -1.6805 0.9643
-0.0836 6.3139 -1.3348 0.9745
-0.6444 6.2584 -1.3299 0.9746
-2.3655 6.0861 -1.3802 0.9737
-3.6470 5.9561 -1.4763 0.9719
-4.3687 5.8823 -1.5488 0.9705
-5.1712 5.7999 -1.6426 0.9687
-7.1516 5.5953 -1.9194 0.9636
-8.4365 5.4618 -2.1244 0.9597
-10.6717 5.6263 -2.5501 0.9519
-12.9861 5.4265 -2.9750 0.9441
-16.2558 5.1437 -3.6041 0.9327
-21.3273 4.7040 -4.6165 0.9146
-32.0878 4.1208 -6.8384 0.8761
-16.1630 -6.9954 -3.7228 0.9305
-12.2471 -6.6561 -2.9464 0.9446
-9.6664 -6.4330 -2.4544 0.9536
-7.6356 -6.1313 -2.0700 0.9608
-6.2729 -6.0333 -1.8398 0.9650
-5.5121 -20.0187 -4.3890 0.9186
-1.0223 -5.6400 -1.2116 0.9768
0.4893 -5.4977 -1.1667 0.9777
1.1551 -6.4154 -1.3779 0.9737
2.6680 -9.7347 -2.1336 0.9596
3.2448 -8.7031 -1.9634 0.9627
4.1180 -6.9390 -1.7056 0.9675
4.4498 -6.1681 -1.6077 0.9694
5.1563 -4.1505 -1.3992 0.9733
5.3182 -3.5483 -1.3514 0.9742
5.5577 -2.4132 -1.2807 0.9755
5.7019 -1.3405 -1.2381 0.9763
5.7636 -0.3011 -1.2200 0.9767
5.7652 0.2144 -1.2195 0.9767
5.7475 0.7312 -1.2247 0.9766
5.4706 2.8759 -1.3064 0.9750
4.9967 4.6744 -1.4463 0.9724
4.4035 5.9145 -1.5587 0.9703
2.5633 6.5720 -1.4911 0.9716
0.0914 6.3311 -1.3384 0.9744
-0.4711 6.2756 -1.3303 0.9746
-2.7891 6.0433 -1.4069 0.9732
-10.0817 5.6771 -2.4457 0.9538
-12.1909 5.4952 -2.8266 0.9468
-15.1044 5.2433 -3.3797 0.9367
-19.4764 4.8646 -4.2434 0.9212
-44.5485 2.9458 -9.4372 0.8332
-8.3296 -6.3176 -2.2099 0.9582
-5.9969 -6.5259 -1.8734 0.9644
-16.0938 -21.0035 -5.5932 0.8975
-13.1395 -20.7519 -5.1919 0.9045
-1.2047 6.1982 -1.4840 0.9744
-1.7748 6.1412 -1.5024 0.9741
-2.3637 6.0818 -1.5335 0.9735
-2.9826 6.0190 -1.5788 0.9728
-5.1669 5.7950 -1.8247 0.9686
-7.1445 5.5898 -2.1320 0.9634
-10.6604 5.6203 -2.8323 0.9517
-16.2317 5.1360 -4.0013 0.9324
-21.2868 4.6951 -5.1231 0.9143
-31.9980 4.1093 -7.5820 0.8759
-23.0155 -7.6041 -5.6968 0.9052
-16.1922 -7.0081 -4.1467 0.9301
-9.6779 -6.4406 -2.7322 0.9534
-7.6421 -6.1364 -2.3035 0.9605
-5.9054 -6.7945 -2.1157 0.9637
-15.1423 -20.9372 -6.0728 0.8993
-7.3563 -19.6597 -4.9334 0.9174
0.4896 -5.5013 -1.2980 0.9776
2.4665 -8.9995 -2.1931 0.9624
3.4786 -7.2710 -1.8944 0.9674
3.8655 -6.5136 -1.7802 0.9694
4.1918 -5.8104 -1.6839 0.9710
4.6992 -4.5304 -1.5341 0.9735
5.0565 -3.3737 -1.4286 0.9753
5.1901 -2.8287 -1.3892 0.9760
5.2978 -2.3004 -1.3574 0.9765
5.3818 -1.7852 -1.3326 0.9770
5.4438 -1.2799 -1.3143 0.9773
5.5079 0.2049 -1.2954 0.9776
5.4522 1.1958 -1.3118 0.9773
5.3937 1.6997 -1.3291 0.9770
5.3135 2.2130 -1.3528 0.9766
5.2100 2.7389 -1.3833 0.9761
5.0809 3.2809 -1.4214 0.9755
4.9236 3.8427 -1.4679 0.9747
4.7345 4.4291 -1.5237 0.9737
4.5090 5.0450 -1.5902 0.9726
1.8875 6.5020 -1.5912 0.9726
0.0913 6.3268 -1.4871 0.9743
-0.4708 6.2712 -1.4780 0.9745
-2.7870 6.0389 -1.5632 0.9730
-4.9084 5.8217 -1.7897 0.9692
-6.7950 5.6262 -2.0734 0.9644
-8.0017 5.5003 -2.2820 0.9609
-10.0715 5.6713 -2.7165 0.9536
-12.1767 5.4889 -3.1391 0.9466
-19.4424 4.8561 -4.7098 0.9210
-28.4058 4.4500 -6.7575 0.8886
-44.3768 2.9345 -10.4524 0.8330
-13.2935 -6.7553 -3.5045 0.9406
-10.3815 -6.5018 -2.8789 0.9509
-6.6666 -6.0658 -2.1183 0.9636
-5.9446 -6.4691 -2.0648 0.9645
-16.1062 -21.0197 -6.2236 0.8969
-10.5692 -20.5473 -5.4305 0.9094
-0.6435 6.2498 -1.6267 0.9744
-1.2039 6.1940 -1.6337 0.9743
-1.7735 6.1368 -1.6540 0.9740
-2.3621 6.0774 -1.6882 0.9734
-2.9804 6.0146 -1.7380 0.9726
-4.3616 5.8729 -1.8941 0.9702
-5.1624 5.7901 -2.0085 0.9685
-12.9542 5.4132 -3.6352 0.9436
-21.2460 4.6861 -5.6332 0.9140
-31.9078 4.0977 -8.3294 0.8755
-23.0734 -7.6233 -6.2918 0.9045
-16.2218 -7.0209 -4.5766 0.9296
-9.6896 -6.4484 -3.0136 0.9530
-7.6486 -6.1417 -2.5398 0.9603
-6.2824 -6.0423 -2.2569 0.9646
-15.1539 -20.9532 -6.6953 0.8987
-12.3240 -20.7105 -6.2399 0.9052
-9.1066 -18.9770 -5.4500 0.9167
-1.0237 -5.6477 -1.4861 0.9766
-0.5050 -5.5984 -1.4554 0.9770
0.4900 -5.5049 -1.4309 0.9774
2.2916 -8.3612 -2.2447 0.9648
2.8187 -7.5603 -2.0891 0.9672
3.2634 -6.8212 -1.9579 0.9692
3.6401 -6.1336 -1.8467 0.9710
4.2311 -4.8797 -1.6723 0.9737
4.4611 -4.3007 -1.6044 0.9747
4.6549 -3.7469 -1.5472 0.9756
4.8170 -3.2139 -1.4993 0.9764
5.0588 -2.1966 -1.4280 0.9775
5.2704 0.1960 -1.3655 0.9784
5.2142 1.1436 -1.3821 0.9782
5.1553 1.6245 -1.3995 0.9779
5.0746 2.1135 -1.4233 0.9775
4.6843 3.6560 -1.5385 0.9757
4.4960 4.2060 -1.5941 0.9749
4.2725 4.7805 -1.6600 0.9739
4.0085 5.3841 -1.7380 0.9726
2.5594 6.5618 -1.8237 0.9713
1.8861 6.4971 -1.7517 0.9724
1.2590 6.4365 -1.6981 0.9733
0.6645 6.3786 -1.6605 0.9738
-0.4705 6.2669 -1.6272 0.9744
-1.0298 6.2113 -1.6302 0.9743
-1.5956 6.1547 -1.6463 0.9741
-2.1772 6.0961 -1.6761 0.9736
-2.7850 6.0345 -1.7208 0.9729
-6.7884 5.6208 -2.2819 0.9642
-7.9931 5.4945 -2.5114 0.9607
-15.0623 5.2287 -4.1282 0.9362
-26.7977 4.1980 -7.0230 0.8940
-17.9077 -7.1690 -4.9944 0.9234
-13.3140 -6.7657 -3.8668 0.9402
-10.3947 -6.5100 -3.1756 0.9506
-8.3477 -6.3312 -2.7127 0.9576
-5.7537 -7.5089 -2.4494 0.9617
-10.1964 -19.8226 -5.7716 0.9120
-0.6431 6.2454 -1.7774 0.9742
-1.7723 6.1325 -1.8071 0.9738
-2.3604 6.0730 -1.8445 0.9733
-5.1580 5.7851 -2.1942 0.9683
-7.1302 5.5786 -2.5629 0.9631
-12.9380 5.4064 -3.9696 0.9434
-16.1829 5.1206 -4.8052 0.9319
-21.2050 4.6771 -6.1473 0.9137
-31.8171 4.0860 -9.0812 0.8752
-16.2518 -7.0339 -5.0132 0.9290
-9.7014 -6.4562 -3.2990 0.9527
-8.1322 -16.9467 -5.3213 0.9248
-5.6980 -15.2279 -4.6028 0.9346
-0.5053 -5.6022 -1.5924 0.9769
-0.0033 -5.5548 -1.5725 0.9772
0.9835 -5.4627 -1.5713 0.9772
1.7718 -6.4649 -1.8976 0.9725
3.0712 -6.4195 -2.0146 0.9708
3.4371 -5.7917 -1.9066 0.9724
3.7497 -5.1976 -1.8144 0.9737
4.0164 -4.6321 -1.7356 0.9748
4.4355 -3.5703 -1.6119 0.9766
4.5967 -3.0670 -1.5644 0.9773
4.7300 -2.5779 -1.5250 0.9779
4.8380 -2.1007 -1.4931 0.9783
4.9225 -1.6328 -1.4682 0.9787
4.9851 -1.1720 -1.4497 0.9789
5.0268 -0.7163 -1.4374 0.9791
5.0499 0.1879 -1.4306 0.9792
4.8538 2.0215 -1.4885 0.9784
4.7499 2.4970 -1.5191 0.9779
4.6210 2.9839 -1.5572 0.9774
4.4647 3.4846 -1.6033 0.9767
4.2780 4.0021 -1.6584 0.9759
3.7976 5.1007 -1.8002 0.9739
2.5574 6.5567 -1.9924 0.9712
1.2581 6.4318 -1.8553 0.9731
0.6640 6.3740 -1.8142 0.9737
0.0912 6.3179 -1.7888 0.9741
-1.0291 6.2070 -1.7811 0.9742
-2.1756 6.0917 -1.8312 0.9735
-2.7830 6.0300 -1.8801 0.9728
-3.4287 5.9640 -1.9475 0.9718
-4.1278 5.8920 -2.0366 0.9705
-4.9002 5.8120 -2.1521 0.9689
-6.7817 5.6153 -2.4926 0.9641
-7.9845 5.4885 -2.7429 0.9605
-15.0409 5.2213 -4.5072 0.9360
-17.9439 -7.1835 -5.4717 0.9228
-5.8412 -6.3564 -2.4439 0.9647
-5.6843 -7.4183 -2.6457 0.9619
-12.1950 -19.2603 -6.4535 0.9096
-9.0227 -17.5407 -5.5841 0.9213
-0.0833 6.2962 -1.9368 0.9740
-0.6426 6.2410 -1.9298 0.9741
-1.2021 6.1852 -1.9380 0.9740
-1.7710 6.1281 -1.9620 0.9737
-4.3545 5.8633 -2.2464 0.9699
-7.1229 5.5729 -2.7817 0.9629
-8.8895 5.7551 -3.2572 0.9567
-12.9217 5.3996 -4.3075 0.9431
-16.1582 5.1128 -5.2128 0.9315
-16.2824 -7.0471 -5.4571 0.9284
-9.7133 -6.4643 -3.5887 0.9523
-12.7165 -17.5830 -6.6743 0.9132
-9.5357 -16.0247 -5.7355 0.9249
0.9842 -5.4664 -1.7084 0.9770
1.5383 -5.6128 -1.7900 0.9759
2.4848 -6.6645 -2.1877 0.9707
2.8983 -6.0581 -2.0656 0.9723
3.8201 -4.4057 -1.7936 0.9759
4.2335 -3.4076 -1.6716 0.9775
4.3932 -2.9311 -1.6244 0.9781
4.5257 -2.4666 -1.5853 0.9787
4.6331 -2.0118 -1.5536 0.9791
4.7174 -1.5648 -1.5287 0.9794
4.7799 -1.1238 -1.5103 0.9797
4.8215 -0.6871 -1.4980 0.9798
4.8431 -0.2530 -1.4916 0.9799
4.6489 1.9361 -1.5489 0.9791
4.2624 3.3266 -1.6630 0.9776
3.6054 4.8426 -1.8569 0.9751
3.3081 5.3881 -1.9447 0.9739
2.8664 5.7673 -1.9809 0.9734
2.4196 6.2034 -2.0480 0.9725
1.8832 6.4873 -2.0777 0.9721
1.2571 6.4270 -2.0143 0.9730
0.6635 6.3695 -1.9697 0.9736
-0.4698 6.2581 -1.9303 0.9741
-2.1740 6.0873 -1.9882 0.9733
-2.7809 6.0255 -2.0412 0.9726
-3.4260 5.9594 -2.1143 0.9716
-4.1245 5.8872 -2.2110 0.9704
-5.7669 5.7158 -2.4974 0.9666
-6.7750 5.6097 -2.7055 0.9639
-7.9758 5.4825 -2.9769 0.9603
-15.0194 5.2138 -4.8901 0.9356
-19.3389 4.8302 -6.1310 0.9200
-26.6680 4.1777 -8.3026 0.8932
-43.8578 2.9001 -13.5192 0.8320
-13.3560 -6.7870 -4.6080 0.9392
-8.3661 -6.3452 -3.2296 0.9570
-5.7898 -6.3006 -2.6319 0.9648
-7.7425 -15.0520 -5.2063 0.9316
-0.0833 6.2917 -2.0916 0.9738
-1.2013 6.1807 -2.0930 0.9738
-1.7697 6.1236 -2.1188 0.9735
-2.9736 6.0010 -2.2262 0.9722
-4.3508 5.8584 -2.4257 0.9697
-5.1489 5.7750 -2.5718 0.9679
-7.1156 5.5671 -3.0032 0.9626
-10.6146 5.5962 -3.9887 0.9507
-16.1332 5.1049 -5.6248 0.9312
-21.1217 4.6587 -7.1897 0.9129
-30.0458 3.8586 -10.0694 0.8801
-23.2531 -7.6826 -8.1404 0.9019
-12.3372 -6.7051 -4.6675 0.9425
-7.6687 -6.1578 -3.2692 0.9594
-6.2971 -6.0564 -2.9042 0.9638
-5.5701 -6.4088 -2.8225 0.9648
-1.5728 -5.7123 -1.9694 0.9753
-0.5060 -5.6100 -1.8724 0.9765
0.4910 -5.5161 -1.8408 0.9769
0.9849 -5.4702 -1.8475 0.9768
3.3836 -4.6902 -1.9224 0.9759
3.6397 -4.1976 -1.8468 0.9769
4.0466 -3.2572 -1.7267 0.9783
4.5262 -1.5013 -1.5851 0.9801
4.5884 -1.0788 -1.5668 0.9803
4.6299 -0.6598 -1.5546 0.9805
4.6513 -0.2429 -1.5482 0.9806
4.6530 0.1731 -1.5477 0.9806
4.6349 0.5897 -1.5531 0.9805
4.5968 1.0082 -1.5643 0.9804
4.5382 1.4300 -1.5816 0.9801
4.3553 2.2896 -1.6356 0.9795
3.8930 3.6420 -1.7720 0.9778
3.4294 4.6062 -1.9089 0.9761
3.1394 5.1134 -1.9945 0.9750
2.2829 5.8531 -2.0884 0.9739
1.8569 6.3968 -2.2141 0.9723
0.6630 6.3648 -2.1271 0.9734
-0.4695 6.2536 -2.0846 0.9739
-1.5921 6.1415 -2.1090 0.9736
-2.7788 6.0209 -2.2043 0.9724
-4.8917 5.8019 -2.5226 0.9685
-5.7616 5.7105 -2.6965 0.9664
-6.7681 5.6040 -2.9209 0.9636
-7.9670 5.4765 -3.2136 0.9601
-10.0300 5.6480 -3.8263 0.9526
-19.3037 4.8214 -6.6138 0.9196
-26.6024 4.1675 -8.9507 0.8927
-26.6180 -7.9846 -9.2375 0.8895
-18.0182 -7.2132 -6.4515 0.9214
-10.4354 -6.5355 -4.0929 0.9494
-5.6495 -6.1478 -2.7754 0.9654
-5.3775 -7.0179 -2.9389 0.9634
-8.9541 -14.1418 -5.5639 0.9319
-0.6417 6.2320 -2.2404 0.9737
-1.2004 6.1762 -2.2500 0.9736
-2.3551 6.0595 -2.3248 0.9728
-3.6299 5.9282 -2.4858 0.9709
-6.0507 5.6739 -2.9663 0.9654
-7.1081 5.5613 -3.2275 0.9624
-12.8885 5.3857 -4.9952 0.9424
-21.0793 4.6494 -7.7193 0.9124
-44.0388 1.6902 -15.7602 0.8293
-44.2516 -6.2527 -15.9819 0.8271
-40.5101 -9.4738 -14.8776 0.8380
-16.3452 -7.0743 -6.3691 0.9271
-12.3561 -6.7154 -5.0291 0.9420
-6.3021 -6.0613 -3.1269 0.9635
-5.1387 -7.1052 -3.1358 0.9634
-4.0275 -10.7636 -4.1098 0.9524
-1.5740 -5.7165 -2.1203 0.9751
-1.0266 -5.6637 -2.0584 0.9758
-0.0033 -5.5663 -1.9906 0.9766
0.9856 -5.4740 -1.9890 0.9766
2.2149 -5.9408 -2.2673 0.9734
2.5994 -5.4332 -2.1539 0.9747
3.4732 -4.0056 -1.8959 0.9777
4.0288 -2.6880 -1.7320 0.9796
4.4716 -0.2336 -1.6013 0.9812
4.2798 1.7824 -1.6579 0.9805
4.1780 2.1963 -1.6879 0.9801
4.0524 2.6167 -1.7250 0.9797
3.9011 3.0448 -1.7697 0.9792
1.7505 6.0303 -2.2455 0.9737
1.2552 6.4174 -2.3384 0.9726
0.0910 6.3043 -2.2547 0.9736
-0.4691 6.2491 -2.2410 0.9737
-1.0268 6.1936 -2.2451 0.9737
-2.1708 6.0782 -2.3081 0.9730
-2.7767 6.0163 -2.3696 0.9722
-4.8874 5.7968 -2.7115 0.9683
-5.7561 5.7051 -2.8982 0.9662
-6.7613 5.5983 -3.1391 0.9634
-7.9581 5.4704 -3.4534 0.9598
-12.1037 5.4559 -4.7478 0.9452
-14.9755 5.1986 -5.6688 0.9349
-26.5361 4.1571 -9.6053 0.8922
-45.1192 -5.1065 -16.2380 0.8246
-41.7983 -8.5628 -15.2578 0.8342
-26.6990 -8.0089 -9.9681 0.8883
-8.3852 -6.3597 -3.7635 0.9563
-6.6935 -6.0903 -3.2362 0.9623
-6.0024 -11.6691 -4.6927 0.9458
-0.0831 6.2825 -2.4078 0.9734
-0.6412 6.2274 -2.3991 0.9735
-3.6270 5.9234 -2.6617 0.9707
-7.1005 5.5554 -3.4549 0.9621
-8.8633 5.7381 -4.0463 0.9558
-10.5908 5.5836 -4.5881 0.9500
-12.8715 5.3786 -5.3459 0.9420
-16.0823 5.0887 -6.4642 0.9303
-29.8765 3.8368 -11.5433 0.8789
-32.9810 -1.6837 -12.6554 0.8681
-29.6829 -6.9417 -11.6819 0.8776
-23.3791 -7.7242 -9.4356 0.8999
-12.3754 -6.7259 -5.3976 0.9414
-9.7506 -6.4890 -4.4884 0.9511
-6.3072 -6.0662 -3.3536 0.9632
-3.6588 -9.7783 -4.0010 0.9563
-0.5068 -5.6180 -2.1617 0.9761
-0.0033 -5.5703 -2.1346 0.9764
0.4916 -5.5238 -2.1252 0.9765
2.4690 -5.1606 -2.1923 0.9758
3.7112 -2.9873 -1.8257 0.9798
3.8647 -2.5785 -1.7804 0.9803
3.9928 -2.1761 -1.7426 0.9807
4.0972 -1.7790 -1.7118 0.9810
4.1795 -1.3863 -1.6875 0.9813
4.2407 -0.9970 -1.6694 0.9815
4.3044 0.1601 -1.6506 0.9817
4.2490 0.9319 -1.6670 0.9815
4.1913 1.3208 -1.6840 0.9814
4.1126 1.7128 -1.7072 0.9811
4.0120 2.1091 -1.7369 0.9808
3.7389 2.9181 -1.8175 0.9799
3.5627 3.3329 -1.8695 0.9793
2.8427 4.6301 -2.0821 0.9770
1.6542 5.6986 -2.2739 0.9749
1.2054 6.1627 -2.4064 0.9735
0.6621 6.3553 -2.4486 0.9730
0.0909 6.2996 -2.4144 0.9734
-0.4688 6.2445 -2.3997 0.9735
-1.0261 6.1890 -2.4041 0.9735
-2.1691 6.0736 -2.4715 0.9728
-2.7745 6.0116 -2.5373 0.9720
-3.4178 5.9451 -2.6279 0.9711
-4.1142 5.8725 -2.7478 0.9698
-4.8830 5.7916 -2.9031 0.9681
-5.7506 5.6997 -3.1028 0.9659
-7.9490 5.4641 -3.6965 0.9595
-10.0084 5.6358 -4.4017 0.9520
-14.9531 5.1908 -6.0658 0.9344
-26.4691 4.1466 -10.2671 0.8916
-32.8557 2.1727 -12.6184 0.8684
-32.2713 -3.6524 -12.4459 0.8701
-18.0954 -7.2442 -7.4696 0.9199
-8.3949 -6.3671 -4.0378 0.9559
-6.6991 -6.0955 -3.4709 0.9619
-5.5208 -6.0077 -3.1267 0.9657
-6.9349 -10.9527 -4.9679 0.9460
-5.3830 -10.4650 -4.5099 0.9508
-0.0831 6.2778 -2.5696 0.9732
-0.6407 6.2227 -2.5603 0.9733
-1.7657 6.1098 -2.6029 0.9729
-2.9666 5.9868 -2.7346 0.9715
-3.6239 5.9184 -2.8403 0.9705
-4.3397 5.8433 -2.9789 0.9690
-5.1349 5.7592 -3.1579 0.9672
-6.0387 5.6627 -3.3882 0.9649
-7.0929 5.5494 -3.6859 0.9618
-8.8544 5.7323 -4.3170 0.9554
-10.5787 5.5773 -4.8945 0.9496
-24.7146 -3.4921 -10.2156 0.8977
-21.4965 -7.1022 -9.2658 0.9068
-16.4106 -7.1026 -7.3185 0.9256
-9.7635 -6.4976 -4.8000 0.9506
-5.2050 -5.9885 -3.2474 0.9663
-4.8658 -6.7279 -3.3982 0.9648
-5.7820 -9.7166 -4.6276 0.9523
-4.4880 -9.3526 -4.2457 0.9562
-3.3471 -8.9452 -3.9090 0.9596
-1.5764 -5.7253 -2.4304 0.9747
-0.5071 -5.6222 -2.3103 0.9759
1.4897 -5.4357 -2.3067 0.9759
3.1754 -3.6622 -1.9838 0.9793
3.3822 -3.2607 -1.9228 0.9799
4.1226 -0.5875 -1.7043 0.9822
4.1451 0.1541 -1.6977 0.9822
3.7338 2.4110 -1.8190 0.9810
3.5871 2.7997 -1.8623 0.9805
3.4141 3.1939 -1.9134 0.9800
3.2124 3.5943 -1.9729 0.9794
2.9792 4.0015 -2.0418 0.9787
2.7113 4.4161 -2.1208 0.9779
2.0550 5.2687 -2.3145 0.9759
1.1380 5.8180 -2.4263 0.9747
0.0909 6.2948 -2.5766 0.9732
-1.5886 6.1277 -2.5908 0.9730
-2.7722 6.0069 -2.7077 0.9718
-3.4150 5.9402 -2.8043 0.9708
-4.1107 5.8674 -2.9321 0.9695
-4.8786 5.7864 -3.0976 0.9678
-5.7451 5.6942 -3.3106 0.9656
-6.7472 5.5866 -3.5852 0.9628
-9.9973 5.6296 -4.6958 0.9516
-12.0732 5.4422 -5.4201 0.9444
-14.9304 5.1830 -6.4684 0.9340
-19.1956 4.7944 -8.0976 0.9180
-25.5701 -0.5967 -10.4681 0.8953
-25.0222 -2.8319 -10.3064 0.8969
-23.8209 -4.8799 -9.9518 0.9002
-22.1053 -6.6309 -9.4454 0.9051
-18.1353 -7.2601 -7.9950 0.9190
-13.4447 -6.8321 -6.1723 0.9369
-8.4049 -6.3747 -4.3174 0.9554
-4.9602 -6.4733 -3.3378 0.9654
-4.6364 -7.3225 -3.5471 0.9632
-4.8716 -9.4708 -4.3589 0.9550
-0.0831 6.2730 -2.7341 0.9730
-1.1977 6.1623 -2.7359 0.9730
-1.7643 6.1050 -2.7696 0.9727
-2.3496 6.0453 -2.8267 0.9721
-3.6209 5.9134 -3.0219 0.9702
-4.3358 5.8381 -3.1693 0.9688
-6.0326 5.6570 -3.6043 0.9646
-7.0851 5.5433 -3.9206 0.9615
-10.5663 5.5707 -5.2058 0.9492
-16.0299 5.0722 -7.3275 0.9293
-20.2504 2.6006 -8.8980 0.9148
-20.6822 -1.0558 -9.0254 0.9136
-20.1457 -2.8465 -8.8671 0.9151
-19.1637 -4.4817 -8.5772 0.9177
-16.2520 -7.0339 -7.7178 0.9256
-6.3178 -6.0764 -3.8202 0.9625
-1.5777 -5.7298 -2.5901 0.9744
-1.0289 -5.6765 -2.5142 0.9751
-0.0033 -5.5785 -2.4312 0.9760
0.4924 -5.5320 -2.4204 0.9761
0.9877 -5.4859 -2.4293 0.9760
2.2384 -4.6787 -2.2604 0.9776
2.5421 -4.2834 -2.1708 0.9785
2.8086 -3.8931 -2.0921 0.9793
3.2438 -3.1272 -1.9637 0.9805
3.4180 -2.7513 -1.9122 0.9810
3.6906 -2.0114 -1.8318 0.9818
3.8725 -1.2845 -1.7781 0.9824
3.9323 -0.9245 -1.7605 0.9825
3.9723 -0.5661 -1.7487 0.9826
3.9946 0.1486 -1.7421 0.9827
3.9771 0.5059 -1.7472 0.9827
3.9403 0.8642 -1.7581 0.9826
3.4447 2.6885 -1.9044 0.9811
3.0776 3.4435 -2.0127 0.9801
2.5894 4.2175 -2.1568 0.9786
1.5718 5.4145 -2.4572 0.9757
1.0942 5.5940 -2.4842 0.9754
0.0906 6.2759 -2.7354 0.9730
-0.4681 6.2350 -2.7250 0.9731
-1.0245 6.1796 -2.7300 0.9730
-2.1658 6.0641 -2.8064 0.9723
-2.7700 6.0020 -2.8809 0.9716
-3.4121 5.9352 -2.9837 0.9706
-4.8741 5.7810 -3.2955 0.9675
-5.7394 5.6885 -3.5218 0.9654
-7.9305 5.4514 -4.1941 0.9589
-12.0577 5.4351 -5.7641 0.9439
-17.9296 4.4783 -8.0541 0.9225
-20.0096 3.1347 -8.8269 0.9154
-20.7481 -0.4842 -9.0449 0.9134
-19.5103 -3.9968 -8.6795 0.9168
-16.7594 -6.7093 -7.8676 0.9243
-10.4932 -6.5717 -5.3960 0.9474
-5.5294 -6.0171 -3.5615 0.9650
-4.8307 -6.3044 -3.4615 0.9659
-0.6397 6.2131 -2.8912 0.9728
-1.1968 6.1574 -2.9035 0.9727
-1.7629 6.1002 -2.9393 0.9724
-4.3319 5.8329 -3.3631 0.9685
-5.1251 5.7482 -3.5648 0.9666
-8.8360 5.7204 -4.8724 0.9547
-12.8190 5.3567 -6.4310 0.9406
-17.0287 2.1869 -7.9471 0.9271
-17.3522 -0.8858 -8.0426 0.9263
-16.2078 -3.7904 -7.7048 0.9293
-15.1865 -5.0174 -7.4034 0.9319
-12.4358 -6.7587 -6.5516 0.9395
-9.7901 -6.5153 -5.4435 0.9495
-6.3233 -6.0816 -4.0610 0.9621
-5.2130 -5.9978 -3.6784 0.9656
-3.7703 -7.8568 -4.0339 0.9623
-1.0298 -5.6809 -2.6724 0.9749
-0.5079 -5.6307 -2.6169 0.9754
0.4928 -5.5361 -2.5727 0.9758
0.9884 -5.4901 -2.5821 0.9757
1.4274 -5.2083 -2.4998 0.9765
2.1357 -4.4641 -2.2907 0.9784
2.4299 -4.0945 -2.2039 0.9792
2.9160 -3.3630 -2.0604 0.9806
3.2845 -2.6437 -1.9517 0.9816
3.7904 -0.8912 -1.8023 0.9830
3.8298 -0.5458 -1.7907 0.9831
3.8503 -0.2011 -1.7847 0.9831
3.8519 0.1432 -1.7842 0.9832
3.8346 0.4878 -1.7893 0.9831
3.7427 1.1794 -1.8164 0.9829
3.5706 1.8770 -1.8672 0.9824
3.3107 2.5839 -1.9439 0.9817
3.1443 2.9415 -1.9930 0.9812
2.9513 3.3021 -2.0500 0.9807
2.7293 3.6659 -2.1155 0.9801
2.4758 4.0325 -2.1903 0.9794
2.1878 4.4019 -2.2753 0.9786
1.8618 4.7733 -2.3716 0.9777
1.4938 5.1457 -2.4802 0.9767
1.0793 5.5179 -2.6025 0.9755
0.5800 5.5674 -2.5910 0.9756
-0.4677 6.2302 -2.8920 0.9728
-1.0237 6.1748 -2.8973 0.9728
-1.5861 6.1182 -2.9257 0.9725
-2.1640 6.0593 -2.9783 0.9720
-3.4092 5.9302 -3.1663 0.9703
-4.8695 5.7756 -3.4968 0.9673
-6.7326 5.5746 -4.0461 0.9622
-14.1771 4.9215 -6.9465 0.9360
-15.6544 3.9100 -7.4688 0.9313
-17.3103 1.1447 -8.0302 0.9264
-16.4707 -3.3741 -7.7824 0.9286
-14.3576 -5.7478 -7.1587 0.9341
-10.5085 -6.5813 -5.7394 0.9468
-8.4255 -6.3904 -4.8949 0.9545
-6.7168 -6.1115 -4.2035 0.9608
-5.5338 -6.0219 -3.7857 0.9646
-4.7055 -6.1410 -3.5811 0.9665
-4.3842 -6.9242 -3.7936 0.9645
-4.0751 -7.9223 -4.1238 0.9615
-0.0751 5.6758 -2.7843 0.9750
-0.6146 5.9693 -2.9436 0.9736
-1.7615 6.0953 -3.1123 0.9721
-2.3457 6.0354 -3.1763 0.9716
-2.9592 5.9718 -3.2693 0.9707
-3.6146 5.9031 -3.3953 0.9696
-7.0691 5.5307 -4.4028 0.9608
-8.8265 5.7143 -5.1578 0.9542
-10.5410 5.5573 -5.8452 0.9483
-11.6804 4.8809 -6.2096 0.9452
-14.6490 1.8813 -7.2447 0.9363
-14.9235 0.5728 -7.3257 0.9356
-14.9023 -0.7607 -7.3195 0.9357
-14.5873 -2.0611 -7.2265 0.9365
-12.2043 -5.2821 -6.5232 0.9425
-11.1009 -6.0331 -6.1975 0.9453
-6.3288 -6.0870 -4.3073 0.9616
-5.2172 -6.0026 -3.9011 0.9652
-4.1544 -6.9816 -3.9851 0.9645
-3.4830 -7.2583 -3.9491 0.9648
-1.5802 -5.7391 -2.9199 0.9738
-0.0033 -5.5870 -2.7405 0.9754
1.3580 -4.9551 -2.5202 0.9774
1.7190 -4.6106 -2.4137 0.9783
2.3251 -3.9179 -2.2348 0.9799
3.1585 -2.5423 -1.9888 0.9821
3.3013 -2.2026 -1.9467 0.9825
3.4213 -1.8646 -1.9113 0.9828
3.5976 -1.1933 -1.8592 0.9833
3.6557 -0.8595 -1.8421 0.9834
3.6946 -0.5265 -1.8306 0.9835
3.7148 -0.1940 -1.8247 0.9836
3.6636 0.8035 -1.8398 0.9834
3.6087 1.1372 -1.8560 0.9833
3.5342 1.4719 -1.8779 0.9831
3.4393 1.8080 -1.9060 0.9828
3.3230 2.1457 -1.9403 0.9825
3.0212 2.8263 -2.0294 0.9817
2.8326 3.1693 -2.0850 0.9812
1.4217 4.8974 -2.5015 0.9775
0.5755 5.5242 -2.7244 0.9756
-0.4414 5.8801 -2.8925 0.9741
-1.0215 6.1616 -3.0637 0.9726
-1.5848 6.1133 -3.0978 0.9723
-3.4063 5.9250 -3.3524 0.9700
-4.0996 5.8517 -3.5048 0.9687
-4.8648 5.7700 -3.7021 0.9669
-8.3730 5.7556 -4.9840 0.9557
-14.5069 2.2726 -7.2028 0.9367
-14.9409 -0.3486 -7.3309 0.9356
-14.7152 -1.6654 -7.2643 0.9362
-13.4631 -4.0385 -6.8947 0.9393
-12.5248 -5.0141 -6.6178 0.9417
-6.7229 -6.1171 -4.4585 0.9603
-4.5842 -5.9827 -3.6971 0.9670
-0.0725 5.4748 -2.8405 0.9756
-0.5791 5.6241 -2.9331 0.9748
-1.1396 5.8630 -3.0985 0.9734
-4.3238 5.8220 -3.7622 0.9678
-6.0136 5.6392 -4.2769 0.9635
-7.0608 5.5243 -4.6509 0.9604
-8.5554 5.5388 -5.2873 0.9551
-12.8178 1.6462 -6.7042 0.9434
-13.0397 0.5005 -6.7697 0.9429
-12.2925 -2.8748 -6.5492 0.9447
-11.6279 -3.8417 -6.3530 0.9463
-10.8133 -4.6800 -6.1126 0.9483
-9.8919 -5.3761 -5.8406 0.9505
-4.0396 -6.7886 -4.0982 0.9650
-3.2314 -6.7338 -3.8748 0.9669
-2.4646 -6.5868 -3.6485 0.9688
-1.5815 -5.7440 -3.0907 0.9735
-1.0314 -5.6901 -3.0000 0.9743
-0.5087 -5.6396 -2.9376 0.9748
0.9064 -5.0340 -2.6536 0.9772
1.2937 -4.7204 -2.5392 0.9782
2.2270 -3.7525 -2.2638 0.9805
2.4716 -3.4259 -2.1916 0.9811
3.5659 -0.5081 -1.8686 0.9839
3.5857 -0.1873 -1.8627 0.9840
3.5353 0.7754 -1.8776 0.9838
3.4813 1.0970 -1.8936 0.9837
3.4080 1.4194 -1.9152 0.9835
3.3147 1.7426 -1.9427 0.9833
2.7207 3.0442 -2.1181 0.9818
2.2703 3.6977 -2.2510 0.9806
1.9997 4.0235 -2.3309 0.9800
0.9745 4.9819 -2.6335 0.9774
0.5509 5.2886 -2.7585 0.9763
-1.5587 6.0124 -3.2222 0.9724
-2.1604 6.0493 -3.3324 0.9715
-2.7630 5.9869 -3.4207 0.9707
-3.4032 5.9198 -3.5424 0.9697
-6.7175 5.5621 -4.5245 0.9615
-8.2607 5.6784 -5.2003 0.9558
-9.2003 5.1808 -5.4776 0.9535
-12.7026 1.9900 -6.6702 0.9437
-12.9961 0.8594 -6.7569 0.9430
-13.0537 -0.3046 -6.7739 0.9429
-12.4616 -2.5529 -6.5991 0.9443
-11.8517 -3.5551 -6.4191 0.9458
-11.0790 -4.4352 -6.1910 0.9476
-10.1860 -5.1761 -5.9275 0.9498
-9.2154 -5.7715 -5.6410 0.9522
-6.7291 -6.1227 -4.7198 0.9598
-5.5430 -6.0320 -4.2499 0.9638
-0.0711 5.3711 -2.9421 0.9758
-0.5586 5.4255 -2.9873 0.9754
-2.2701 5.8409 -3.4322 0.9718
-2.9434 5.9401 -3.6309 0.9702
-3.6080 5.8924 -3.7842 0.9690
-5.1097 5.7310 -4.2054 0.9656
-6.0071 5.6330 -4.5104 0.9631
-9.7874 4.0899 -5.8098 0.9528
-10.4578 3.3091 -6.0077 0.9512
-10.9930 2.4247 -6.1657 0.9500
-11.3637 1.4594 -6.2750 0.9491
-11.5476 0.4432 -6.3293 0.9487
-11.3221 -1.5998 -6.2628 0.9492
-8.0524 -5.3589 -5.2977 0.9568
-6.2850 -6.0448 -4.7761 0.9610
-5.2258 -6.0125 -4.3631 0.9643
-4.2973 -5.9419 -4.0163 0.9671
-3.7647 -6.3266 -4.0322 0.9670
-3.0088 -6.2702 -3.8091 0.9688
-2.3042 -6.1580 -3.6012 0.9705
-1.5829 -5.7489 -3.2658 0.9732
-0.5035 -5.5819 -3.0697 0.9748
-0.0031 -5.3349 -2.9220 0.9760
0.4513 -5.0700 -2.7879 0.9771
0.8627 -4.7913 -2.6665 0.9780
1.2340 -4.5023 -2.5569 0.9789
1.5680 -4.2055 -2.4583 0.9797
