ply
format ascii 1.0
element vertex 1604
property float32 x
property float32 y
property float32 z
property float32 I
end_header
13.8123 7.8140 2.7982 0.9376
10.8691 7.5082 2.3293 0.9478
7.1443 7.1224 1.7788 0.9599
5.8544 6.9894 1.6076 0.9636
3.0598 6.7030 1.2992 0.9705
2.3343 6.6292 1.2393 0.9719
1.6677 6.5618 1.1938 0.9729
1.0435 6.4988 1.1606 0.9736
0.4485 6.4391 1.1381 0.9741
-0.1286 6.3815 1.1255 0.9744
-0.6974 6.3249 1.1220 0.9745
-1.2674 6.2686 1.1277 0.9744
-2.4491 6.1524 1.1676 0.9735
-3.0824 6.0906 1.2036 0.9727
-5.1976 5.7205 1.3628 0.9691
-6.6767 5.1169 1.4832 0.9664
-7.3059 4.6236 1.5245 0.9655
-7.4605 3.8325 1.4789 0.9665
-7.5832 3.0718 1.4427 0.9673
-7.7448 1.6146 1.3950 0.9684
-7.8061 0.2044 1.3769 0.9688
-7.7727 -1.2000 1.3868 0.9686
-7.6415 -2.6390 1.4255 0.9677
-7.5358 -3.3852 1.4567 0.9670
-7.4002 -4.1576 1.4967 0.9661
-6.6489 -6.5893 1.6506 0.9627
-6.4714 -7.6797 1.7708 0.9600
-6.1072 -8.7280 1.8783 0.9577
-5.6674 -9.8784 2.0081 0.9548
-5.1335 -11.1581 2.1657 0.9513
-2.0154 -5.6701 1.0610 0.9759
-0.9111 -5.5688 0.9950 0.9773
-0.4010 -5.5217 0.9762 0.9778
3.8198 -19.1855 3.4493 0.9236
9.3951 -18.7012 3.6902 0.9185
13.7774 -18.3163 4.0413 0.9111
7.4867 -4.7693 1.5652 0.9646
27.9060 -11.4006 5.3154 0.8848
17.7851 -3.7629 3.2054 0.9288
24.8452 -2.9661 4.4120 0.9034
24.5989 -0.7171 4.3393 0.9049
25.0059 3.7845 4.4594 0.9024
18.6686 8.3196 3.6038 0.9203
11.0333 7.5252 2.3549 0.9472
8.8787 7.3018 2.0270 0.9544
5.9322 6.9974 1.6175 0.9634
4.8489 6.8860 1.4850 0.9664
3.1104 6.7082 1.3038 0.9704
1.7104 6.5661 1.1964 0.9728
0.4872 6.4430 1.1393 0.9741
-0.0907 6.3853 1.1260 0.9744
-0.6597 6.3286 1.1220 0.9745
-1.2294 6.2723 1.1270 0.9744
-1.8090 6.2152 1.1414 0.9741
-2.4084 6.1564 1.1656 0.9735
-3.0393 6.0948 1.2009 0.9727
-5.1521 5.7385 1.3598 0.9692
-5.8603 5.4541 1.4116 0.9680
-6.6237 5.1390 1.4782 0.9665
-7.2944 4.6772 1.5279 0.9654
-7.4512 3.8838 1.4816 0.9664
-7.5760 3.1214 1.4448 0.9673
-7.6719 2.3828 1.4165 0.9679
-7.7412 1.6618 1.3961 0.9684
-7.7854 0.9529 1.3830 0.9686
-7.8056 0.2507 1.3770 0.9688
-7.8023 -0.4496 1.3780 0.9688
18.2475 8.2621 3.0686 0.9221
13.7890 7.8009 2.4270 0.9379
10.8538 7.4977 2.0209 0.9480
8.7462 7.2804 1.7433 0.9550
7.1366 7.1148 1.5438 0.9600
5.8487 6.9826 1.3954 0.9638
3.8630 6.7797 1.1954 0.9689
3.0574 6.6977 1.1279 0.9706
1.6665 6.5570 1.0364 0.9730
1.0428 6.4943 1.0076 0.9737
0.4482 6.4347 0.9881 0.9742
-0.1284 6.3771 0.9771 0.9745
-1.2665 6.2643 0.9791 0.9745
-2.4474 6.1481 1.0137 0.9736
-3.0802 6.0862 1.0450 0.9728
-4.5017 5.9480 1.1428 0.9703
-6.0126 5.5296 1.2514 0.9675
-6.7995 5.2110 1.3124 0.9659
-8.0850 2.4586 1.2946 0.9664
-8.1910 0.9532 1.2633 0.9672
-8.1100 -2.0093 1.2799 0.9668
-8.0449 -2.7784 1.3039 0.9661
-7.8172 -4.3919 1.3736 0.9644
-7.6532 -5.2532 1.4220 0.9631
-6.7495 -6.6890 1.4557 0.9623
-6.9074 -8.1971 1.6421 0.9575
-6.1043 -10.6399 1.8792 0.9516
-1.4465 -5.6217 0.8892 0.9768
-0.9117 -5.5725 0.8650 0.9774
2.0752 -19.3471 2.9809 0.9243
5.6040 -19.0428 3.0410 0.9228
7.4519 -18.8826 3.1098 0.9211
13.7869 -18.3289 3.5135 0.9114
6.8977 -6.3816 1.4395 0.9627
7.4944 -4.7742 1.3612 0.9647
14.9651 -4.5993 2.3984 0.9386
20.8334 3.1530 3.2279 0.9183
11.0176 7.5146 2.0430 0.9475
8.8678 7.2929 1.7589 0.9546
7.2318 7.1246 1.5552 0.9598
1.7091 6.5613 1.0387 0.9729
0.4868 6.4386 0.9892 0.9742
-0.0906 6.3809 0.9776 0.9745
-0.6594 6.3244 0.9741 0.9746
-1.2286 6.2680 0.9785 0.9745
-1.8077 6.2109 0.9910 0.9742
-2.4067 6.1521 1.0120 0.9736
-4.4501 5.9530 1.1386 0.9704
-5.9628 5.5495 1.2479 0.9676
-6.7452 5.2332 1.3078 0.9660
-7.8667 4.1004 1.3590 0.9647
-7.9873 3.2908 1.3234 0.9656
-8.0798 2.5095 1.2961 0.9663
-8.1465 1.7488 1.2764 0.9668
-8.1890 1.0023 1.2639 0.9672
-8.2053 -0.4729 1.2591 0.9673
18.1479 8.2171 2.5942 0.9228
13.7660 7.7878 2.0596 0.9382
10.8387 7.4872 1.7154 0.9482
8.7357 7.2716 1.4801 0.9552
7.1291 7.1072 1.3109 0.9602
5.8431 6.9759 1.1850 0.9640
3.8598 6.7741 1.0153 0.9690
2.3308 6.6193 0.9139 0.9721
1.6653 6.5523 0.8804 0.9731
-0.1284 6.3729 0.8300 0.9746
-1.2656 6.2600 0.8317 0.9746
-3.7563 6.0155 0.9235 0.9718
-6.9260 5.3079 1.1363 0.9654
-7.8175 4.9474 1.2047 0.9634
-8.3362 4.2824 1.2204 0.9629
-8.3338 0.9697 1.0925 0.9667
-8.1870 -0.5207 1.0683 0.9675
-8.1187 -1.2535 1.0697 0.9674
-8.0524 -1.9950 1.0803 0.9671
-7.9868 -2.7583 1.1003 0.9665
-7.9208 -3.5582 1.1307 0.9656
-7.7827 -5.3422 1.2292 0.9626
-7.3020 -6.0416 1.2341 0.9625
-6.8525 -6.7911 1.2563 0.9618
-7.4027 -8.7848 1.4960 0.9547
-2.0182 -5.6780 0.7847 0.9760
0.3351 -19.5075 2.5407 0.9243
2.0764 -19.3583 2.5353 0.9245
3.8243 -19.2079 2.5504 0.9240
7.4563 -18.8939 2.6450 0.9213
13.7962 -18.3414 2.9887 0.9116
16.3627 -18.1164 3.1789 0.9062
19.3025 -17.8580 3.4243 0.8994
7.5021 -4.7791 1.1583 0.9648
18.9089 -7.7250 2.6599 0.9209
17.8599 -3.7787 2.3772 0.9290
17.8109 -2.1263 2.3358 0.9302
17.7170 -0.5165 2.3081 0.9310
17.8717 2.7048 2.3538 0.9297
18.1331 4.4352 2.4309 0.9275
14.0021 7.8121 2.0880 0.9374
7.2241 7.1169 1.3205 0.9599
5.9206 6.9838 1.1923 0.9637
2.3767 6.6240 0.9164 0.9720
1.7079 6.5566 0.8823 0.9730
1.0823 6.4938 0.8573 0.9738
-0.6589 6.3201 0.8275 0.9747
-1.8065 6.2067 0.8418 0.9743
-2.4051 6.1478 0.8596 0.9737
-3.7096 6.0201 0.9208 0.9719
-6.0682 5.6476 1.0795 0.9671
-7.7554 4.9727 1.1997 0.9635
-8.3390 1.0205 1.0940 0.9667
-8.1916 -0.4721 1.0685 0.9674
7.1215 7.0997 1.0798 0.9604
3.8567 6.7685 0.8365 0.9691
2.3291 6.6145 0.7530 0.9722
1.0413 6.4853 0.7053 0.9739
-0.6960 6.3122 0.6819 0.9748
-2.4440 6.1395 0.7096 0.9738
-3.7535 6.0111 0.7610 0.9719
-5.3225 5.8579 0.8499 0.9687
-6.2289 5.7286 0.9087 0.9665
-7.0564 5.4079 0.9547 0.9649
-8.5364 3.4578 0.9890 0.9636
-8.4406 2.5666 0.9473 0.9651
-8.3541 1.7415 0.9164 0.9663
-8.2839 0.2168 0.8898 0.9672
-8.2802 -0.5266 0.8909 0.9672
-8.2585 -1.2751 0.8973 0.9669
-8.2184 -2.0361 0.9092 0.9665
-7.9720 -4.4789 0.9819 0.9639
-7.3077 -6.0463 1.0185 0.9626
-6.8363 -6.7751 1.0335 0.9620
-6.6674 -14.4921 1.7130 0.9378
-2.0196 -5.6819 0.6475 0.9760
5.6106 -19.0653 2.1341 0.9232
16.3744 -18.1295 2.6233 0.9064
18.5553 -17.1667 2.7144 0.9033
7.5097 -4.7839 0.9561 0.9648
16.3049 -6.6612 1.8913 0.9316
14.7667 -4.5384 1.6589 0.9397
15.7562 -3.3336 1.7294 0.9373
15.6202 -1.8648 1.6892 0.9387
15.5731 0.9438 1.6753 0.9392
16.0798 5.4997 1.8249 0.9339
5.9149 6.9771 0.9822 0.9639
4.8360 6.8677 0.9020 0.9668
3.9134 6.7742 0.8401 0.9690
3.1032 6.6925 0.7921 0.9708
2.3750 6.6191 0.7551 0.9721
0.4862 6.4298 0.6924 0.9744
-1.2269 6.2596 0.6850 0.9747
-2.4034 6.1435 0.7084 0.9738
-3.0327 6.0817 0.7298 0.9730
-3.7069 6.0156 0.7588 0.9720
-4.4432 5.9437 0.7969 0.9706
-5.2644 5.8636 0.8462 0.9688
-6.1767 5.7486 0.9061 0.9666
-8.6523 4.5098 1.0477 0.9615
-8.5431 3.5197 0.9922 0.9635
-8.3596 1.7945 0.9181 0.9662
14.4447 6.5403 1.3423 0.9383
13.7204 7.7620 1.3345 0.9387
10.8088 7.4666 1.1121 0.9486
8.7149 7.2543 0.9599 0.9555
5.8320 6.9626 0.7688 0.9642
4.7665 6.8550 0.7068 0.9670
1.6629 6.5431 0.5715 0.9733
-0.1282 6.3643 0.5389 0.9748
-0.6955 6.3080 0.5372 0.9748
-1.8429 6.1944 0.5471 0.9744
-2.4423 6.1353 0.5590 0.9738
-6.2639 5.7607 0.7204 0.9664
-7.1913 5.5113 0.7670 0.9643
-8.1359 5.1488 0.8150 0.9621
-8.5740 4.4044 0.8160 0.9620
-8.7217 -2.1608 0.7606 0.9646
-8.5960 -3.8616 0.7977 0.9629
-8.5019 -4.7766 0.8255 0.9616
-7.5312 -10.7630 1.1120 0.9486
-1.4494 -5.6329 0.4924 0.9769
-0.4020 -5.5357 0.4698 0.9780
0.1191 -6.9335 0.5870 0.9725
11.5168 -18.5658 1.8495 0.9160
14.3397 -5.8583 1.3113 0.9397
14.1395 -4.3455 1.2522 0.9423
13.8872 0.8416 1.1778 0.9457
13.9409 2.1099 1.1936 0.9450
14.0435 3.4349 1.2239 0.9436
14.2019 4.8574 1.2706 0.9415
14.4271 6.4294 1.3371 0.9386
8.8358 7.2666 0.9684 0.9551
3.9101 6.7687 0.6617 0.9691
3.1008 6.6873 0.6240 0.9708
0.4859 6.4255 0.5455 0.9745
-0.0905 6.3681 0.5391 0.9748
-0.6580 6.3117 0.5372 0.9748
-1.2261 6.2554 0.5396 0.9747
-1.8040 6.1982 0.5465 0.9744
-2.4017 6.1393 0.5581 0.9739
-3.0306 6.0774 0.5749 0.9731
-4.4397 5.9390 0.6277 0.9707
-5.2601 5.8588 0.6665 0.9689
-8.6892 2.6986 0.7702 0.9641
-8.7658 1.0728 0.7476 0.9652
-8.7772 -0.5059 0.7442 0.9653
12.8637 5.8244 0.8756 0.9450
12.3364 6.9790 0.8789 0.9448
10.7941 7.4563 0.8135 0.9488
8.7046 7.2457 0.7023 0.9556
7.1066 7.0848 0.6223 0.9606
5.8264 6.9560 0.5627 0.9643
3.8504 6.7575 0.4823 0.9693
0.4470 6.4173 0.3989 0.9745
-0.1281 6.3601 0.3945 0.9748
-0.6951 6.3038 0.3933 0.9749
-1.2631 6.2475 0.3952 0.9748
-3.0714 6.0688 0.4218 0.9731
-3.7479 6.0022 0.4388 0.9720
-4.4877 5.9294 0.4611 0.9706
-6.2583 5.7556 0.5272 0.9665
-7.3309 5.6182 0.5727 0.9637
-8.3038 5.2551 0.6094 0.9614
-9.2644 2.8171 0.6004 0.9619
-11.5895 -6.5112 0.8243 0.9481
-9.2062 -6.3193 0.6924 0.9562
-6.7134 -6.6532 0.5861 0.9628
-29.4174 -34.9096 2.8308 0.8328
-8.7690 -15.2844 1.0927 0.9318
0.1071 -6.2312 0.3864 0.9753
2.0800 -19.3915 1.2094 0.9248
3.8309 -19.2411 1.2166 0.9244
7.4697 -18.9279 1.2618 0.9217
14.4154 -15.9605 1.3336 0.9174
6.7329 -5.1918 0.5272 0.9665
7.5249 -4.7936 0.5532 0.9649
12.8025 -5.2303 0.8576 0.9461
12.6850 -3.8985 0.8229 0.9482
12.5530 -1.4986 0.7839 0.9506
12.8534 5.7281 0.8726 0.9452
8.8252 7.2579 0.7085 0.9552
7.2011 7.0943 0.6268 0.9603
5.9037 6.9637 0.5661 0.9641
4.8275 6.8556 0.5199 0.9670
3.9070 6.7632 0.4843 0.9692
3.0984 6.6822 0.4567 0.9709
2.3715 6.6094 0.4354 0.9723
1.7043 6.5427 0.4193 0.9733
1.0800 6.4804 0.4074 0.9740
-1.2253 6.2512 0.3950 0.9748
-1.8028 6.1941 0.4000 0.9745
-2.4001 6.1350 0.4085 0.9739
-3.0284 6.0730 0.4208 0.9732
-3.7014 6.0068 0.4375 0.9721
-4.4363 5.9345 0.4595 0.9707
-6.1913 5.7622 0.5245 0.9667
-9.1346 4.7611 0.6387 0.9596
-9.2067 3.7931 0.6175 0.9609
-9.2613 2.8763 0.6013 0.9619
11.6921 6.6143 0.5298 0.9476
10.7794 7.4462 0.5166 0.9489
8.6944 7.2372 0.4460 0.9557
7.0992 7.0774 0.3953 0.9607
3.8473 6.7521 0.3064 0.9694
2.3240 6.6000 0.2759 0.9724
1.0392 6.4720 0.2585 0.9741
-1.8404 6.1861 0.2545 0.9745
-2.4389 6.1269 0.2600 0.9739
-3.0693 6.0646 0.2680 0.9732
-3.7452 5.9977 0.2788 0.9721
-5.3093 5.8435 0.3113 0.9689
-6.2528 5.7505 0.3350 0.9666
-11.0370 5.6698 0.4893 0.9515
-7.3249 -6.0605 0.3749 0.9627
-6.6538 -6.5942 0.3694 0.9632
-18.3439 -21.7687 1.1225 0.8923
-15.0279 -21.4765 1.0336 0.9004
-12.1773 -21.2251 0.9649 0.9067
-9.3366 -20.2939 0.8808 0.9145
0.0972 -5.6596 0.2232 0.9776
5.6204 -19.0986 0.7850 0.9234
7.4741 -18.9391 0.8028 0.9217
9.4301 -18.7706 0.8283 0.9193
11.5314 -18.5895 0.8626 0.9162
12.6158 -16.7719 0.8276 0.9194
12.3606 -13.6854 0.7272 0.9288
11.5661 -4.7251 0.4926 0.9512
11.5048 -3.5358 0.4746 0.9530
11.4621 -2.4250 0.4620 0.9542
11.4355 -1.3652 0.4541 0.9549
11.4237 -0.3330 0.4506 0.9553
11.4430 1.7319 0.4563 0.9547
11.5925 5.1662 0.5004 0.9505
11.6844 6.5190 0.5276 0.9478
10.9412 7.4624 0.5222 0.9484
7.1936 7.0869 0.3982 0.9604
4.8233 6.8496 0.3303 0.9670
3.9038 6.7577 0.3077 0.9692
2.3698 6.6046 0.2767 0.9723
1.0793 6.4760 0.2589 0.9741
0.4852 6.4169 0.2537 0.9746
-1.8016 6.1899 0.2542 0.9745
-4.4329 5.9299 0.2919 0.9708
-5.2515 5.8492 0.3100 0.9690
-14.3088 5.8954 0.6102 0.9399
10.5934 5.9931 0.2056 0.9525
10.0581 6.9480 0.2065 0.9523
8.6842 7.2287 0.1909 0.9558
7.0918 7.0700 0.1691 0.9607
5.8155 6.9429 0.1530 0.9644
4.7541 6.8372 0.1407 0.9672
2.3223 6.5952 0.1181 0.9724
1.6594 6.5293 0.1138 0.9734
0.4463 6.4088 0.1085 0.9746
-1.8391 6.1819 0.1089 0.9745
-3.7425 5.9934 0.1193 0.9721
-4.4807 5.9203 0.1254 0.9707
-7.3541 5.6360 0.1565 0.9636
-18.2197 5.5404 0.3217 0.9266
-11.6196 -6.5281 0.2251 0.9481
-9.2264 -6.3331 0.1890 0.9562
-6.5954 -6.5363 0.1568 0.9635
-18.3592 -21.7869 0.4813 0.8923
-11.7638 -20.5042 0.3993 0.9098
-1.4523 -5.6440 0.0984 0.9770
-0.9152 -5.5940 0.0957 0.9776
0.0945 -5.4998 0.0929 0.9782
2.0824 -19.4136 0.3298 0.9249
3.8353 -19.2632 0.3318 0.9244
5.6236 -19.1096 0.3365 0.9234
7.4786 -18.9503 0.3441 0.9217
9.4359 -18.7821 0.3551 0.9193
10.9383 -14.5419 0.3074 0.9298
10.8208 -11.9806 0.2727 0.9375
6.7242 -6.2211 0.1547 0.9640
6.6249 -5.1086 0.1413 0.9671
7.5401 -4.8033 0.1510 0.9649
9.0150 -4.6650 0.1715 0.9602
10.5491 -4.3097 0.1925 0.9554
10.5118 -2.2240 0.1815 0.9579
10.5341 3.6029 0.1881 0.9564
10.5585 4.7054 0.1953 0.9548
7.1860 7.0794 0.1704 0.9604
4.8191 6.8437 0.1414 0.9671
2.3680 6.5998 0.1184 0.9723
1.7019 6.5335 0.1140 0.9734
0.4849 6.4126 0.1086 0.9746
-0.0903 6.3555 0.1074 0.9749
-0.6567 6.2992 0.1070 0.9750
-2.3968 6.1267 0.1111 0.9740
-3.0242 6.0645 0.1145 0.9733
-3.6960 5.9979 0.1190 0.9722
-6.1804 5.7521 0.1426 0.9668
-10.8880 5.6752 0.2074 0.9521
9.6939 4.3893 -0.0599 0.9583
9.2852 6.4141 -0.0635 0.9559
3.8411 6.7412 -0.0437 0.9694
3.0411 6.6619 -0.0412 0.9711
1.0378 6.4632 -0.0369 0.9742
0.4461 6.4045 -0.0362 0.9746
-0.6937 6.2914 -0.0356 0.9750
-1.8379 6.1778 -0.0363 0.9745
-2.4356 6.1185 -0.0371 0.9740
-3.0649 6.0560 -0.0382 0.9732
-4.4773 5.9157 -0.0418 0.9708
-9.2364 -6.3400 -0.0631 0.9562
-15.0510 -21.5095 -0.1478 0.9003
-11.7715 -20.5177 -0.1332 0.9097
-9.3483 -20.3192 -0.1259 0.9144
-7.1587 -20.1398 -0.1203 0.9181
-0.9158 -5.5976 -0.0319 0.9776
-0.4030 -5.5497 -0.0313 0.9780
0.0946 -5.5033 -0.0310 0.9782
5.6269 -19.1207 -0.1122 0.9234
7.4830 -18.9615 -0.1148 0.9217
8.9771 -17.8690 -0.1126 0.9231
9.5513 -15.3973 -0.1020 0.9301
9.6230 -10.6544 -0.0808 0.9442
6.6657 -6.1670 -0.0511 0.9643
9.0253 -4.6704 -0.0572 0.9602
9.6971 -3.9616 -0.0590 0.9590
9.7076 -2.0538 -0.0559 0.9611
9.7104 -1.1593 -0.0551 0.9616
5.5816 -0.1627 -0.0314 0.9779
9.7113 0.5886 -0.0548 0.9618
9.7096 1.4695 -0.0553 0.9615
9.7013 3.3181 -0.0577 0.9598
9.6944 4.3204 -0.0598 0.9584
9.6854 5.4037 -0.0624 0.9566
7.1785 7.0720 -0.0567 0.9605
5.8869 6.9440 -0.0513 0.9642
3.8975 6.7468 -0.0439 0.9693
1.0779 6.4672 -0.0369 0.9741
0.4846 6.4083 -0.0362 0.9746
-0.0902 6.3513 -0.0358 0.9749
-0.6563 6.2951 -0.0356 0.9750
-1.2229 6.2388 -0.0358 0.9749
-1.7992 6.1816 -0.0363 0.9746
-2.3951 6.1225 -0.0370 0.9740
-3.6933 5.9936 -0.0396 0.9722
-5.2429 5.8396 -0.0442 0.9691
-7.2675 5.6385 -0.0518 0.9639
-8.5889 5.5072 -0.0574 0.9600
-13.2819 5.4722 -0.0809 0.9442
-17.8952 5.5580 -0.1055 0.9278
8.8686 6.1263 -0.3035 0.9578
8.3251 6.9299 -0.3050 0.9576
7.0771 7.0554 -0.2814 0.9608
3.8380 6.7357 -0.2183 0.9695
3.0388 6.6568 -0.2061 0.9711
1.6571 6.5202 -0.1894 0.9734
-0.6932 6.2873 -0.1781 0.9750
-1.2598 6.2310 -0.1790 0.9749
-2.4339 6.1143 -0.1853 0.9740
-3.0628 6.0517 -0.1910 0.9732
-3.7370 5.9846 -0.1987 0.9722
-5.2963 5.8292 -0.2218 0.9690
-8.6775 5.4916 -0.2892 0.9597
-13.4546 5.4501 -0.4088 0.9436
-23.9902 5.0013 -0.6900 0.9066
-11.6499 -6.5451 -0.3763 0.9479
-6.4817 -6.4236 -0.2570 0.9641
-18.3898 -21.8233 -0.8036 0.8921
-15.0626 -21.5260 -0.7398 0.9002
-11.7793 -20.5312 -0.6665 0.9096
-7.1630 -20.1518 -0.6022 0.9180
0.0946 -5.5066 -0.1551 0.9782
3.8396 -19.2852 -0.5537 0.9243
5.6302 -19.1318 -0.5615 0.9233
7.4281 -18.8223 -0.5698 0.9222
8.3802 -13.5095 -0.4477 0.9384
8.6638 -9.5923 -0.3640 0.9496
6.6083 -6.1139 -0.2535 0.9646
6.5205 -5.0280 -0.2319 0.9676
7.5553 -4.8130 -0.2522 0.9648
8.9722 -3.6655 -0.2729 0.9620
8.9988 -2.7656 -0.2651 0.9630
9.0176 -1.9078 -0.2595 0.9638
9.0118 2.2042 -0.2612 0.9636
8.9610 3.9934 -0.2762 0.9615
8.8723 6.0514 -0.3024 0.9579
8.3296 6.8503 -0.3037 0.9578
4.8108 6.8318 -0.2353 0.9671
3.8944 6.7413 -0.2192 0.9693
1.6995 6.5244 -0.1899 0.9734
0.4843 6.4040 -0.1808 0.9746
-0.0902 6.3471 -0.1787 0.9749
-0.6559 6.2910 -0.1781 0.9750
-2.3935 6.1183 -0.1850 0.9741
-3.0199 6.0560 -0.1906 0.9733
-7.2606 5.6331 -0.2588 0.9639
-8.5798 5.5014 -0.2870 0.9600
-10.8659 5.6636 -0.3450 0.9521
-23.5011 5.0451 -0.6768 0.9083
8.3264 3.7701 -0.4635 0.9641
8.2652 4.6759 -0.4816 0.9627
5.7991 6.9234 -0.4580 0.9645
3.8349 6.7304 -0.3929 0.9695
3.0364 6.6518 -0.3708 0.9711
1.6560 6.5157 -0.3409 0.9734
1.0364 6.4544 -0.3315 0.9742
-0.1277 6.3392 -0.3216 0.9749
-2.4323 6.1101 -0.3335 0.9740
-4.4704 5.9066 -0.3757 0.9708
-7.3329 5.6198 -0.4685 0.9637
-8.6683 5.4857 -0.5202 0.9597
-23.9416 4.9912 -1.2403 0.9067
-11.6651 -6.5537 -0.6786 0.9478
-9.2567 -6.3539 -0.5694 0.9560
-7.3478 -6.0795 -0.4837 0.9625
-6.4261 -6.3686 -0.4588 0.9644
-6.3294 -7.5112 -0.4981 0.9614
-9.3599 -20.3445 -1.1357 0.9142
-1.4551 -5.6552 -0.2961 0.9769
-0.9170 -5.6047 -0.2880 0.9775
-0.4036 -5.5566 -0.2826 0.9779
0.0946 -5.5101 -0.2795 0.9782
2.0859 -19.4468 -0.9919 0.9247
3.8419 -19.2963 -0.9978 0.9242
5.6335 -19.1429 -1.0120 0.9232
7.1574 -14.2468 -0.8086 0.9381
7.4638 -12.0324 -0.7181 0.9449
7.8775 -8.7218 -0.5960 0.9540
6.5518 -6.0615 -0.4527 0.9649
6.4694 -4.9886 -0.4143 0.9678
8.3475 -3.4103 -0.4573 0.9645
8.4369 -1.0072 -0.4309 0.9665
5.5391 -0.1615 -0.2810 0.9781
8.4435 0.5117 -0.4290 0.9667
8.2698 4.6139 -0.4803 0.9628
8.1929 5.5880 -0.5029 0.9611
7.6554 6.2959 -0.5027 0.9611
7.1635 7.0573 -0.5100 0.9605
5.8758 6.9309 -0.4608 0.9643
3.8912 6.7359 -0.3945 0.9693
2.3629 6.5854 -0.3548 0.9724
0.4839 6.3998 -0.3255 0.9746
-1.2212 6.2306 -0.3220 0.9749
-3.6879 5.9848 -0.3565 0.9722
-4.4193 5.9117 -0.3743 0.9709
-6.1643 5.7370 -0.4271 0.9668
-17.8400 5.5408 -0.9474 0.9279
-23.4545 5.0351 -1.2166 0.9084
7.7763 3.5210 -0.6259 0.9663
7.6993 4.3558 -0.6486 0.9651
6.9282 6.9070 -0.7173 0.9615
5.7937 6.9169 -0.6616 0.9645
3.0341 6.6467 -0.5357 0.9711
1.6548 6.5111 -0.4926 0.9734
1.0357 6.4500 -0.4790 0.9741
-0.1276 6.3350 -0.4646 0.9749
-0.6923 6.2790 -0.4632 0.9750
-1.2581 6.2228 -0.4655 0.9749
-1.8343 6.1654 -0.4717 0.9745
-2.4306 6.1060 -0.4819 0.9740
-3.0585 6.0432 -0.4966 0.9732
-5.2877 5.8196 -0.5765 0.9690
-6.2254 5.7253 -0.6201 0.9666
-7.3259 5.6144 -0.6768 0.9637
-10.9804 5.6408 -0.9051 0.9517
-23.8933 4.9811 -1.7896 0.9067
-9.2669 -6.3609 -0.8241 0.9559
-7.3535 -6.0842 -0.6998 0.9624
-6.3715 -6.3144 -0.6577 0.9647
-14.5451 -20.7865 -1.8602 0.9033
-9.3658 -20.3573 -1.6430 0.9140
-0.9175 -5.6084 -0.4167 0.9775
0.0947 -5.5135 -0.4043 0.9781
2.0871 -19.4579 -1.4349 0.9245
3.8441 -19.3073 -1.4434 0.9241
7.0029 -9.3099 -0.8542 0.9544
7.2207 -7.9946 -0.7899 0.9577
6.4961 -6.0100 -0.6489 0.9651
6.4190 -4.9498 -0.5944 0.9680
7.5706 -4.8227 -0.6582 0.9646
7.7337 -4.0019 -0.6385 0.9657
7.8029 -3.1878 -0.6180 0.9668
7.8554 -2.4142 -0.6026 0.9676
7.8928 -1.6698 -0.5915 0.9682
7.9163 -0.9450 -0.5846 0.9685
7.9096 1.1971 -0.5866 0.9684
7.8388 2.6811 -0.6074 0.9673
7.7807 3.4675 -0.6246 0.9664
7.6089 5.1896 -0.6753 0.9637
4.8024 6.8200 -0.6116 0.9671
3.8881 6.7304 -0.5699 0.9693
3.0843 6.6516 -0.5376 0.9710
2.3611 6.5806 -0.5126 0.9723
0.4836 6.3955 -0.4703 0.9746
-0.0900 6.3387 -0.4648 0.9749
-0.6550 6.2827 -0.4632 0.9750
-1.2204 6.2265 -0.4652 0.9749
-1.7956 6.1693 -0.4711 0.9746
-3.0156 6.0475 -0.4955 0.9733
-3.6852 5.9805 -0.5151 0.9722
-4.4159 5.9072 -0.5408 0.9709
-5.2301 5.8254 -0.5740 0.9691
-6.1588 5.7320 -0.6169 0.9668
-7.2468 5.6224 -0.6725 0.9639
-8.5617 5.4898 -0.7457 0.9600
-13.2345 5.4527 -1.0495 0.9442
7.2929 3.3021 -0.7686 0.9683
7.2045 4.0758 -0.7947 0.9673
7.0928 4.8996 -0.8276 0.9660
6.9539 5.7884 -0.8686 0.9643
3.8287 6.7195 -0.7425 0.9694
3.0318 6.6416 -0.7009 0.9711
-0.1275 6.3308 -0.6079 0.9749
-0.6919 6.2749 -0.6061 0.9750
-1.8330 6.1613 -0.6171 0.9745
-6.2198 5.7202 -0.8113 0.9666
-10.9691 5.6349 -1.1839 0.9517
-16.8947 5.1375 -1.6953 0.9315
-15.3023 -6.8740 -1.6105 0.9348
-7.3593 -6.0890 -0.9170 0.9623
-6.2135 -7.3735 -0.9257 0.9620
-14.5554 -20.8013 -2.4374 0.9030
-9.3717 -20.3701 -2.1527 0.9138
-7.1759 -20.1880 -2.0570 0.9175
-1.4570 -5.6627 -0.5614 0.9768
-0.4041 -5.5637 -0.5355 0.9778
2.0883 -19.4690 -1.8798 0.9243
3.5248 -17.7036 -1.7330 0.9300
4.5985 -15.6262 -1.5638 0.9366
5.2473 -13.2963 -1.3723 0.9442
6.6633 -7.3774 -0.9544 0.9608
6.4412 -5.9592 -0.8424 0.9654
6.4001 -4.9352 -0.7759 0.9680
7.2439 -3.7484 -0.7830 0.9678
7.3236 -2.9920 -0.7595 0.9687
7.3841 -2.2693 -0.7416 0.9694
7.4274 -1.5714 -0.7289 0.9700
7.4548 -0.8900 -0.7208 0.9703
7.3650 2.5190 -0.7473 0.9692
7.1010 4.8433 -0.8252 0.9660
4.7983 6.8140 -0.8001 0.9671
3.8849 6.7250 -0.7456 0.9693
3.0819 6.6465 -0.7034 0.9710
2.3594 6.5758 -0.6707 0.9723
1.6959 6.5107 -0.6459 0.9733
1.0749 6.4496 -0.6277 0.9741
0.4833 6.3912 -0.6153 0.9746
-0.0900 6.3345 -0.6082 0.9749
-3.0135 6.0432 -0.6483 0.9732
-3.6825 5.9761 -0.6739 0.9722
-4.4125 5.9026 -0.7075 0.9708
-7.2398 5.6170 -0.8797 0.9638
-8.5526 5.4839 -0.9754 0.9600
-10.8327 5.6464 -1.1728 0.9521
-13.2187 5.4462 -1.3726 0.9442
-23.3613 5.0151 -2.2939 0.9085
6.7676 3.8286 -0.9236 0.9692
6.4955 5.4069 -1.0039 0.9665
4.7295 6.8018 -0.9841 0.9672
3.0295 6.6366 -0.8666 0.9710
2.3122 6.5665 -0.8270 0.9723
1.0343 6.4412 -0.7749 0.9741
-0.1274 6.3266 -0.7517 0.9748
-3.0541 6.0346 -0.8034 0.9731
-3.7260 5.9670 -0.8356 0.9721
-4.4600 5.8929 -0.8779 0.9707
-7.3117 5.6036 -1.0943 0.9636
-16.8697 5.1299 -2.0945 0.9314
-23.7964 4.9609 -2.8875 0.9067
-34.3209 3.9941 -4.1044 0.8701
-6.2643 -6.2082 -1.0476 0.9651
-6.1568 -7.3062 -1.1349 0.9622
-14.5658 -20.8162 -3.0179 0.9027
-11.8105 -20.5858 -2.8192 0.9088
-9.3776 -20.3829 -2.6652 0.9136
-7.1802 -20.2002 -2.5466 0.9173
-1.4580 -5.6664 -0.6950 0.9767
-0.9188 -5.6156 -0.6759 0.9773
-0.4043 -5.5672 -0.6631 0.9778
0.0948 -5.5204 -0.6558 0.9780
1.9604 -18.2773 -2.1836 0.9286
4.0802 -13.8649 -1.7168 0.9434
5.6121 -9.0471 -1.2647 0.9580
5.9280 -7.8809 -1.1714 0.9611
6.1839 -6.8466 -1.0959 0.9635
6.4060 -4.9398 -0.9609 0.9679
6.6999 -4.2679 -0.9436 0.9685
7.0123 -1.4835 -0.8514 0.9715
6.9976 1.7116 -0.8557 0.9714
6.9435 2.3749 -0.8717 0.9709
6.7747 3.7798 -0.9215 0.9692
6.5065 5.3510 -1.0007 0.9666
5.7684 6.8044 -1.0596 0.9647
4.7941 6.8081 -0.9891 0.9670
3.0795 6.6414 -0.8696 0.9709
1.6947 6.5061 -0.7986 0.9733
-0.0899 6.3303 -0.7520 0.9748
-0.6541 6.2744 -0.7494 0.9749
-1.7932 6.1610 -0.7622 0.9745
-2.3870 6.1016 -0.7783 0.9740
-5.2216 5.8159 -0.9284 0.9690
-6.1480 5.7219 -0.9977 0.9667
-7.2329 5.6116 -1.0874 0.9638
-10.8216 5.6406 -1.4496 0.9520
-16.5923 5.1533 -2.0638 0.9324
-23.3148 5.0051 -2.8326 0.9084
6.3787 3.6086 -1.0384 0.9708
5.8985 5.8805 -1.1801 0.9669
4.7254 6.7959 -1.1728 0.9671
2.3105 6.5617 -0.9857 0.9723
1.6513 6.4973 -0.9499 0.9733
1.0336 6.4368 -0.9237 0.9740
0.4443 6.3788 -0.9060 0.9745
-0.6910 6.2665 -0.8933 0.9749
-1.8305 6.1530 -0.9096 0.9744
-5.2746 5.8053 -1.1114 0.9688
-7.3047 5.5981 -1.3040 0.9635
-10.9464 5.6233 -1.7437 0.9515
-23.7479 4.9508 -3.4372 0.9066
-11.7269 -6.5884 -1.9059 0.9471
-9.2978 -6.3821 -1.5979 0.9555
-6.1007 -7.2398 -1.3415 0.9625
-14.5763 -20.8312 -3.6024 0.9024
-1.4590 -5.6702 -0.8296 0.9766
-0.4046 -5.5708 -0.7914 0.9777
0.0949 -5.5239 -0.7828 0.9779
0.7330 -6.8336 -0.9738 0.9726
3.6649 -12.4537 -1.8394 0.9489
4.2886 -10.8670 -1.6553 0.9539
4.7826 -9.5197 -1.5095 0.9579
5.7667 -6.3847 -1.2190 0.9658
6.3070 -4.0176 -1.0596 0.9702
6.4244 -3.3244 -1.0249 0.9712
6.5882 -2.0247 -0.9766 0.9725
6.6622 1.0083 -0.9547 0.9731
6.6235 1.6200 -0.9661 0.9728
6.5657 2.2457 -0.9832 0.9724
6.3863 3.5630 -1.0362 0.9709
6.2595 4.2693 -1.0736 0.9699
4.7899 6.8021 -1.1788 0.9669
3.0771 6.6363 -1.0365 0.9709
2.3560 6.5661 -0.9884 0.9722
1.0734 6.4407 -0.9252 0.9740
-0.0899 6.3261 -0.8964 0.9748
-3.0093 6.0346 -0.9555 0.9731
-7.2259 5.6062 -1.2959 0.9637
-8.5344 5.4722 -1.4365 0.9599
-10.8104 5.6348 -1.7273 0.9519
-13.1870 5.4331 -2.0208 0.9440
-16.5680 5.1458 -2.4581 0.9323
-23.2683 4.9951 -3.3720 0.9083
5.8967 4.0734 -1.1807 0.9714
5.7333 4.7725 -1.2289 0.9702
5.5347 5.5178 -1.2875 0.9688
5.0248 5.9990 -1.2891 0.9688
4.7212 6.7899 -1.3624 0.9670
3.8194 6.7031 -1.2709 0.9692
3.0248 6.6263 -1.2000 0.9709
1.6502 6.4927 -1.1036 0.9732
1.0328 6.4323 -1.0732 0.9739
0.4440 6.3745 -1.0527 0.9744
-0.1273 6.3182 -1.0411 0.9747
-1.2548 6.2062 -1.0431 0.9747
-1.8293 6.1487 -1.0568 0.9743
-2.4239 6.0891 -1.0797 0.9738
-3.0497 6.0260 -1.1126 0.9730
-3.7204 5.9581 -1.1572 0.9719
-4.4531 5.8837 -1.2156 0.9705
-5.2702 5.8004 -1.2911 0.9687
-6.2033 5.7050 -1.3884 0.9664
-8.6219 5.4564 -1.6809 0.9595
-10.9349 5.6174 -2.0252 0.9514
-13.3571 5.4107 -2.3741 0.9433
-16.8195 5.1146 -2.8961 0.9312
-23.6993 4.9406 -3.9881 0.9065
-11.7427 -6.5972 -2.2189 0.9469
-7.3769 -6.1036 -1.5773 0.9619
-6.1596 -6.1044 -1.4286 0.9655
-6.0454 -7.1741 -1.5455 0.9627
-11.8265 -20.6136 -3.9151 0.9082
-7.1890 -20.2248 -3.5360 0.9167
-1.4600 -5.6741 -0.9652 0.9765
-0.9199 -5.6229 -0.9386 0.9772
-0.4048 -5.5744 -0.9207 0.9776
0.0949 -5.5274 -0.9107 0.9778
0.6393 -5.9602 -0.9875 0.9760
2.5650 -12.8831 -2.1640 0.9481
5.1319 -6.8225 -1.4064 0.9660
5.6220 -5.2012 -1.2617 0.9694
5.8052 -4.4764 -1.2077 0.9707
5.9556 -3.7938 -1.1633 0.9718
6.0775 -3.1448 -1.1273 0.9726
6.2484 -1.9203 -1.0769 0.9738
6.3017 -1.3332 -1.0611 0.9742
5.2108 -0.1520 -0.8588 0.9791
6.2249 2.1291 -1.0838 0.9737
5.9064 4.0285 -1.1778 0.9714
5.7451 4.7248 -1.2254 0.9703
5.5491 5.4669 -1.2833 0.9689
5.0828 5.9955 -1.2949 0.9686
4.7519 6.7482 -1.3597 0.9671
3.0747 6.6312 -1.2041 0.9708
1.6923 6.4969 -1.1060 0.9732
0.4823 6.3783 -1.0538 0.9744
-0.6532 6.2661 -1.0379 0.9748
-4.4022 5.8889 -1.2113 0.9706
-5.2129 5.8063 -1.2855 0.9689
-6.1371 5.7118 -1.3811 0.9666
-7.2189 5.6008 -1.5052 0.9636
-8.5252 5.4663 -1.6684 0.9598
-10.7993 5.6289 -2.0062 0.9518
-16.5437 5.1382 -2.8538 0.9322
-33.1688 4.0597 -5.5050 0.8733
5.7152 3.2333 -1.2342 0.9736
5.5789 3.8538 -1.2745 0.9728
5.4123 4.5052 -1.3236 0.9717
3.0225 6.6212 -1.3681 0.9708
2.3071 6.5520 -1.3056 0.9721
1.0321 6.4279 -1.2237 0.9739
0.4437 6.3701 -1.2002 0.9743
-0.6900 6.2581 -1.1834 0.9747
-1.2539 6.2020 -1.1893 0.9746
-2.4222 6.0848 -1.2310 0.9737
-4.4496 5.8791 -1.3859 0.9704
-6.1977 5.6998 -1.5827 0.9663
-7.2904 5.5872 -1.7264 0.9633
-8.6124 5.4504 -1.9158 0.9594
-23.6506 4.9305 -4.5410 0.9064
-34.0227 3.9594 -6.4381 0.8699
-15.4052 -6.9202 -3.1743 0.9336
-11.7586 -6.6062 -2.5351 0.9466
-9.3188 -6.3966 -2.1245 0.9550
-7.3829 -6.1085 -1.8011 0.9618
-11.8346 -20.6277 -4.4700 0.9077
-9.3957 -20.4221 -4.2253 0.9126
0.5883 -5.4848 -1.0368 0.9778
2.3224 -11.6649 -2.2356 0.9527
3.0398 -10.3295 -2.0239 0.9571
5.7639 -2.9826 -1.2199 0.9739
5.9397 -1.8254 -1.1680 0.9750
6.0297 -0.7198 -1.1414 0.9756
5.1505 -0.1502 -0.9685 0.9792
6.0421 0.3662 -1.1378 0.9757
5.9155 2.0233 -1.1751 0.9749
5.7233 3.1931 -1.2318 0.9737
5.5888 3.8119 -1.2715 0.9728
5.4244 4.4610 -1.3201 0.9718
5.2255 5.1480 -1.3788 0.9706
4.9863 5.8818 -1.4494 0.9691
4.4436 6.3103 -1.4507 0.9691
3.8721 6.7030 -1.4550 0.9690
3.0723 6.6260 -1.3728 0.9707
1.0719 6.4318 -1.2256 0.9738
0.4820 6.3739 -1.2015 0.9743
-1.2164 6.2057 -1.1886 0.9746
-1.7895 6.1484 -1.2036 0.9743
-3.0049 6.0260 -1.2657 0.9730
-4.3988 5.8843 -1.3809 0.9705
-5.2086 5.8014 -1.4655 0.9688
-7.2118 5.5953 -1.7157 0.9635
-23.1747 4.9750 -4.4552 0.9080
5.4294 3.0716 -1.3186 0.9748
4.9207 4.9056 -1.4687 0.9720
3.8130 6.6920 -1.6281 0.9690
1.6478 6.4834 -1.4140 0.9730
-0.1271 6.3096 -1.3340 0.9745
-1.8267 6.1403 -1.3542 0.9741
-3.0454 6.0173 -1.4256 0.9728
-3.7149 5.9492 -1.4826 0.9717
-4.4461 5.8745 -1.5573 0.9703
-7.2831 5.5816 -1.9396 0.9632
-13.3241 5.3973 -3.0388 0.9429
-22.2008 4.6282 -4.7937 0.9115
-33.9230 3.9478 -7.2191 0.8697
-15.4316 -6.9320 -3.5759 0.9332
-9.3295 -6.4039 -2.3920 0.9548
-7.3889 -6.1135 -2.0272 0.9616
-5.9364 -7.0448 -1.9474 0.9630
-9.4018 -20.4354 -4.7549 0.9121
-7.1979 -20.2499 -4.5428 0.9159
0.5887 -5.4884 -1.1668 0.9777
2.1203 -10.6494 -2.2953 0.9566
2.7982 -9.5086 -2.0952 0.9603
4.5162 -6.0040 -1.5881 0.9698
4.7846 -5.2974 -1.5089 0.9712
5.0094 -4.6345 -1.4425 0.9725
5.1969 -4.0073 -1.3872 0.9735
5.6578 -1.7388 -1.2512 0.9761
5.7141 -1.2089 -1.2346 0.9764
5.7396 0.8687 -1.2270 0.9765
5.6331 1.9267 -1.2585 0.9760
5.5473 2.4722 -1.2838 0.9755
5.4376 3.0337 -1.3162 0.9749
3.8485 6.6620 -1.6263 0.9690
3.0699 6.6207 -1.5426 0.9706
1.0712 6.4272 -1.3773 0.9737
-0.0897 6.3132 -1.3346 0.9745
-0.6524 6.2576 -1.3299 0.9746
-1.2155 6.2015 -1.3358 0.9745
-3.6689 5.9539 -1.4783 0.9718
-13.1389 5.4133 -3.0038 0.9436
5.2809 2.3911 -1.3624 0.9765
5.1684 2.9239 -1.3956 0.9759
5.0294 3.4743 -1.4366 0.9752
4.8608 4.0462 -1.4864 0.9743
4.4181 5.2746 -1.6171 0.9721
4.0862 5.8766 -1.6822 0.9710
3.5878 6.2967 -1.7032 0.9707
2.3036 6.5421 -1.6301 0.9719
1.0306 6.4188 -1.5279 0.9736
0.4431 6.3613 -1.4987 0.9741
-1.2522 6.1935 -1.4851 0.9744
-2.4188 6.0762 -1.5370 0.9735
-3.0431 6.0129 -1.5839 0.9727
-4.4425 5.8697 -1.7301 0.9702
-5.2569 5.7858 -1.8373 0.9684
-7.2759 5.5761 -2.1544 0.9630
-9.0950 5.7558 -2.5296 0.9567
-13.3075 5.3906 -3.3744 0.9427
-22.1571 4.6191 -5.3194 0.9112
-11.7910 -6.6244 -3.1786 0.9459
-9.3403 -6.4113 -2.6626 0.9545
-7.3950 -6.1186 -2.2558 0.9613
-6.0778 -6.0233 -2.0111 0.9655
-5.8827 -6.9810 -2.1456 0.9632
-14.6192 -20.8924 -5.9929 0.9005
-9.4080 -20.4489 -5.2902 0.9117
-6.7937 -19.1130 -4.7673 0.9200
-1.4630 -5.6858 -1.3798 0.9762
-0.9218 -5.6342 -1.3418 0.9768
-0.4056 -5.5854 -1.3161 0.9773
0.0952 -5.5382 -1.3018 0.9775
3.9421 -6.3549 -1.7576 0.9697
4.5233 -5.0080 -1.5860 0.9727
4.7472 -4.3919 -1.5199 0.9738
4.9348 -3.8052 -1.4646 0.9747
5.0907 -3.2428 -1.4186 0.9755
5.3204 -2.1736 -1.3507 0.9767
5.4561 -1.1543 -1.3107 0.9773
5.4924 -0.6556 -1.3000 0.9775
5.5052 0.3337 -1.2962 0.9776
5.3742 1.8381 -1.3349 0.9769
5.0395 3.4372 -1.4337 0.9752
4.1386 5.8773 -1.6894 0.9709
3.6107 6.2504 -1.6965 0.9708
2.3489 6.5465 -1.6346 0.9718
1.6887 6.4827 -1.5744 0.9728
-0.0896 6.3089 -1.4829 0.9744
-1.2147 6.1972 -1.4842 0.9744
-3.0006 6.0172 -1.5803 0.9727
-3.6660 5.9493 -1.6424 0.9717
-5.1998 5.7916 -1.8293 0.9685
-6.1205 5.6963 -1.9651 0.9662
-7.1976 5.5842 -2.1410 0.9633
-8.4973 5.4485 -2.3724 0.9594
-10.7653 5.6112 -2.8532 0.9513
-13.1226 5.4066 -3.3357 0.9433
-16.4698 5.1153 -4.0532 0.9316
-32.8856 4.0251 -7.7866 0.8727
5.0418 2.2828 -1.4330 0.9774
4.6217 3.8471 -1.5570 0.9755
4.4208 4.4073 -1.6163 0.9745
4.1827 4.9936 -1.6866 0.9734
3.9016 5.6112 -1.7695 0.9722
1.6454 6.4739 -1.7295 0.9728
1.0299 6.4142 -1.6820 0.9735
0.4428 6.3569 -1.6499 0.9740
-0.6886 6.2453 -1.6268 0.9744
-1.8242 6.1317 -1.6564 0.9739
-5.2524 5.7808 -2.0223 0.9682
-6.1807 5.6842 -2.1742 0.9659
-9.0864 5.7504 -2.7842 0.9565
-13.2907 5.3838 -3.7128 0.9425
-16.7176 5.0836 -4.5242 0.9303
-15.4855 -6.9562 -4.3954 0.9323
-11.8075 -6.6337 -3.5066 0.9456
-9.3513 -6.4188 -2.9367 0.9542
-6.0823 -6.0278 -2.2172 0.9652
-11.8593 -20.6708 -6.1703 0.9062
-8.7026 -18.9157 -5.3911 0.9176
-6.1120 -17.1952 -4.7250 0.9274
-0.9224 -5.6380 -1.4792 0.9767
0.0952 -5.5418 -1.4351 0.9774
0.5894 -5.4956 -1.4311 0.9774
1.0850 -5.4496 -1.4387 0.9773
2.9197 -7.3983 -2.0593 0.9677
3.7148 -5.9885 -1.8246 0.9713
4.0242 -5.3500 -1.7333 0.9727
4.2866 -4.7460 -1.6559 0.9739
5.2180 -1.1039 -1.3810 0.9782
5.2710 -0.1536 -1.3653 0.9784
5.2675 0.3192 -1.3664 0.9784
5.2442 0.7937 -1.3733 0.9783
5.0484 2.2498 -1.4310 0.9774
4.9373 2.7546 -1.4638 0.9769
4.8000 3.2738 -1.5044 0.9763
4.6338 3.8109 -1.5534 0.9755
4.1997 4.9539 -1.6815 0.9735
3.9217 5.5692 -1.7636 0.9722
3.3985 5.8830 -1.7591 0.9723
3.0332 6.5415 -1.8669 0.9706
1.6874 6.4780 -1.7332 0.9727
0.4810 6.3606 -1.6516 0.9740
-0.0896 6.3046 -1.6325 0.9743
-0.6515 6.2490 -1.6268 0.9744
-1.2138 6.1929 -1.6340 0.9743
-2.3770 6.0759 -1.6893 0.9734
-4.3883 5.8702 -1.8977 0.9702
-5.1954 5.7867 -2.0135 0.9684
-6.1149 5.6911 -2.1629 0.9661
-32.7904 4.0134 -8.5534 0.8724
4.4026 3.6648 -1.6216 0.9765
4.2037 4.1908 -1.6804 0.9756
3.9687 4.7382 -1.7497 0.9746
3.6927 5.3108 -1.8312 0.9735
3.3065 5.8030 -1.8908 0.9726
2.8276 6.1943 -1.9276 0.9721
2.3001 6.5321 -1.9605 0.9716
1.6442 6.4691 -1.8896 0.9726
0.4424 6.3524 -1.8027 0.9739
-0.1268 6.2964 -1.7829 0.9742
-1.2504 6.1848 -1.7863 0.9741
-3.0386 6.0039 -1.9050 0.9724
-3.7063 5.9354 -1.9810 0.9713
-5.2478 5.7757 -2.2092 0.9681
-33.6210 3.9127 -9.5821 0.8687
-7.4074 -6.1288 -2.7217 0.9608
-6.0869 -6.0323 -2.4260 0.9650
-13.9060 -19.8731 -6.8665 0.9041
-10.6715 -18.6005 -6.0708 0.9147
-7.6433 -16.6132 -5.1770 0.9268
-5.3101 -14.9389 -4.4883 0.9362
-1.4651 -5.6938 -1.6644 0.9759
-0.9231 -5.6420 -1.6184 0.9765
-0.4062 -5.5929 -1.5874 0.9770
2.2505 -7.6476 -2.2568 0.9674
2.7394 -6.9413 -2.1125 0.9695
3.1553 -6.2806 -1.9898 0.9712
4.0712 -4.5075 -1.7195 0.9751
4.4759 -3.4513 -1.6000 0.9768
4.6307 -2.9498 -1.5543 0.9774
4.7582 -2.4622 -1.5167 0.9780
4.9975 -1.0573 -1.4461 0.9790
5.0506 -0.1472 -1.4304 0.9792
5.0471 0.3059 -1.4314 0.9792
4.9798 1.2180 -1.4513 0.9789
4.9148 1.6810 -1.4705 0.9786
4.8276 2.1514 -1.4962 0.9783
4.7166 2.6315 -1.5290 0.9778
4.4146 3.6306 -1.6181 0.9765
3.3526 5.8036 -1.8974 0.9725
1.6862 6.4732 -1.8937 0.9726
0.4806 6.3561 -1.8045 0.9738
-0.0895 6.3001 -1.7837 0.9741
-0.6510 6.2446 -1.7774 0.9742
-2.3752 6.0715 -1.8457 0.9733
-3.6604 5.9402 -1.9753 0.9714
-5.1909 5.7817 -2.1997 0.9682
-6.1092 5.6858 -2.3626 0.9659
-7.1831 5.5730 -2.5738 0.9629
-8.9737 5.7540 -3.0178 0.9567
-13.0898 5.3931 -4.0078 0.9428
-16.4197 5.0997 -4.8673 0.9310
4.6162 2.0901 -1.5586 0.9790
4.0044 3.9921 -1.7392 0.9766
3.1874 5.5940 -1.9803 0.9734
2.2618 6.4234 -2.0946 0.9719
1.6429 6.4643 -2.0515 0.9725
-0.1267 6.2920 -1.9357 0.9740
-0.6877 6.2365 -1.9299 0.9741
-3.0363 5.9994 -2.0682 0.9723
-3.7034 5.9307 -2.1506 0.9712
-4.4316 5.8553 -2.2586 0.9697
-7.2537 5.5591 -2.8109 0.9625
-9.0689 5.7393 -3.3011 0.9561
-10.8647 5.5813 -3.7569 0.9502
-22.0239 4.5914 -6.9197 0.9101
-31.8953 3.7118 -9.8765 0.8743
-15.5411 -6.9812 -5.2403 0.9312
-5.6740 -6.7334 -2.7083 0.9638
-12.1035 -17.2972 -6.4934 0.9154
-4.6871 -13.1864 -4.3045 0.9431
-1.4661 -5.6979 -1.8096 0.9757
-0.4065 -5.5967 -1.7259 0.9768
0.0954 -5.5493 -1.7071 0.9770
1.0864 -5.4570 -1.7114 0.9770
2.5781 -6.5327 -2.1601 0.9710
3.8739 -4.2891 -1.7777 0.9761
4.0902 -3.7840 -1.7139 0.9770
4.4270 -2.8201 -1.6144 0.9783
4.5537 -2.3563 -1.5770 0.9788
4.7923 -1.0139 -1.5066 0.9797
4.8289 -0.5764 -1.4958 0.9799
4.8454 -0.1412 -1.4910 0.9799
4.8184 0.7292 -1.4989 0.9798
4.7097 1.6109 -1.5310 0.9794
4.6228 2.0601 -1.5567 0.9790
4.5123 2.5175 -1.5893 0.9786
4.2128 3.4646 -1.6777 0.9774
3.7897 4.4702 -1.8025 0.9758
3.5220 5.0017 -1.8815 0.9747
2.6913 5.8043 -1.9678 0.9736
2.2905 6.3839 -2.0861 0.9720
1.0681 6.4087 -1.9984 0.9732
0.4803 6.3516 -1.9592 0.9737
-0.0894 6.2957 -1.9366 0.9740
-2.3735 6.0671 -2.0038 0.9731
-2.9939 6.0037 -2.0635 0.9723
-3.6575 5.9355 -2.1444 0.9712
-7.1758 5.5673 -2.7935 0.9627
-13.0731 5.3863 -4.3489 0.9425
-16.3943 5.0918 -5.2802 0.9307
-21.5741 4.6314 -6.7869 0.9118
3.5938 4.2905 -1.8604 0.9767
3.3292 4.7880 -1.9385 0.9757
3.0221 5.3038 -2.0291 0.9746
2.1313 6.0529 -2.1331 0.9733
1.6417 6.4593 -2.2154 0.9723
1.0277 6.4002 -2.1547 0.9730
-0.6871 6.2320 -2.0841 0.9739
-1.2487 6.1760 -2.0945 0.9738
-1.8203 6.1185 -2.1219 0.9735
-2.4117 6.0584 -2.1676 0.9729
-3.0339 5.9948 -2.2334 0.9721
-5.2385 5.7655 -2.5894 0.9677
-6.1631 5.6681 -2.7833 0.9653
-13.2393 5.3630 -4.7482 0.9416
-16.6389 5.0597 -5.7810 0.9293
-21.9787 4.5819 -7.4629 0.9097
-31.8019 3.7010 -10.6425 0.8738
-21.8928 -7.5606 -7.6990 0.9070
-11.8586 -6.6624 -4.5214 0.9443
-7.4202 -6.1394 -3.2013 0.9602
-6.0963 -6.0416 -2.8530 0.9645
-5.2277 -7.4710 -3.0310 0.9623
-0.9244 -5.6499 -1.9030 0.9762
0.0954 -5.5532 -1.8462 0.9769
1.5933 -5.4142 -1.8760 0.9765
2.4329 -6.1647 -2.2030 0.9725
2.8206 -5.6144 -2.0886 0.9739
3.1554 -5.0867 -1.9898 0.9751
3.6925 -4.0882 -1.8312 0.9770
3.9052 -3.6129 -1.7685 0.9778
4.0860 -3.1507 -1.7151 0.9785
4.5436 -1.3963 -1.5800 0.9802
4.6007 -0.9733 -1.5632 0.9804
4.6536 -0.1356 -1.5476 0.9806
4.6268 0.7002 -1.5555 0.9805
4.5831 1.1210 -1.5684 0.9803
4.5186 1.5455 -1.5874 0.9801
4.4321 1.9752 -1.6129 0.9798
4.3225 2.4116 -1.6453 0.9794
4.1879 2.8563 -1.6850 0.9789
4.0262 3.3111 -1.7328 0.9783
3.8346 3.7777 -1.7893 0.9776
3.6099 4.2582 -1.8556 0.9767
2.6589 5.7344 -2.1011 0.9737
2.1589 6.0171 -2.1250 0.9734
1.6836 6.4633 -2.2202 0.9722
-1.7820 6.1224 -2.1196 0.9735
-2.9915 5.9991 -2.2283 0.9721
-3.6546 5.9307 -2.3157 0.9711
-5.1817 5.7715 -2.5783 0.9678
-7.1683 5.5615 -3.0159 0.9625
-13.0562 5.3793 -4.6939 0.9422
-30.8994 3.7820 -10.3478 0.8770
4.0027 2.7650 -1.7397 0.9795
3.8413 3.1975 -1.7873 0.9790
3.4282 4.0929 -1.9092 0.9776
1.0269 6.3953 -2.3163 0.9729
0.4415 6.3385 -2.2722 0.9734
-1.2477 6.1715 -2.2516 0.9736
-1.8189 6.1139 -2.2811 0.9733
-2.4099 6.0539 -2.3301 0.9727
-4.4241 5.8454 -2.6216 0.9693
-5.2338 5.7604 -2.7833 0.9675
-6.1572 5.6626 -2.9915 0.9651
-9.0510 5.7280 -3.8304 0.9555
-13.2217 5.3559 -5.1014 0.9412
-44.1377 1.1557 -15.7894 0.8290
-46.2339 -2.9397 -16.5670 0.8214
-39.8681 -9.8767 -14.6881 0.8399
-6.1011 -6.0464 -3.0717 0.9642
-5.0831 -7.2644 -3.1706 0.9630
-6.8980 -12.0234 -4.9570 0.9428
-0.9251 -5.6540 -2.0488 0.9760
0.0955 -5.5571 -1.9875 0.9767
1.0880 -5.4646 -1.9925 0.9766
2.6756 -5.3258 -2.1314 0.9750
3.0004 -4.8369 -2.0355 0.9761
3.2819 -4.3631 -1.9524 0.9771
3.7338 -3.4543 -1.8190 0.9786
3.9118 -3.0164 -1.7665 0.9792
4.0619 -2.5874 -1.7222 0.9797
4.3646 -1.3414 -1.6329 0.9808
4.4576 -0.5321 -1.6054 0.9811
4.4739 -0.1304 -1.6006 0.9812
4.3398 1.4844 -1.6402 0.9807
4.2540 1.8958 -1.6655 0.9804
4.1454 2.3128 -1.6975 0.9800
4.0124 2.7367 -1.7368 0.9796
3.6644 3.6101 -1.8395 0.9784
3.4440 4.0625 -1.9046 0.9776
3.1880 4.5273 -1.9801 0.9768
2.8920 5.0062 -2.0675 0.9757
2.5506 5.5008 -2.1683 0.9746
1.6117 6.1874 -2.2865 0.9732
0.4796 6.3423 -2.2745 0.9733
-0.0893 6.2866 -2.2484 0.9736
-0.6496 6.2312 -2.2404 0.9737
-1.7806 6.1178 -2.2786 0.9733
-2.3699 6.0579 -2.3262 0.9727
-2.9892 5.9945 -2.3954 0.9719
-4.3737 5.8507 -2.6123 0.9694
-5.1771 5.7663 -2.7712 0.9676
-6.0918 5.6696 -2.9760 0.9653
-7.1608 5.5557 -3.2411 0.9622
-10.7067 5.5807 -4.3177 0.9500
-13.0391 5.3722 -5.0432 0.9419
-16.3426 5.0758 -6.1196 0.9299
-21.4867 4.6126 -7.8589 0.9109
-44.0941 1.4166 -15.7765 0.8291
3.9719 2.2470 -1.7488 0.9806
3.0226 4.3470 -2.0290 0.9776
2.3983 5.2539 -2.2132 0.9756
1.9954 5.6668 -2.3023 0.9746
1.4923 5.8718 -2.3217 0.9744
-1.8176 6.1093 -2.4426 0.9731
-3.0292 5.9854 -2.5707 0.9717
-3.6944 5.9163 -2.6730 0.9706
-9.0419 5.7222 -4.1006 0.9552
-13.2040 5.3487 -5.4594 0.9408
-21.8867 4.5628 -8.5677 0.9087
-30.4689 3.5458 -11.7550 0.8769
-31.5419 -4.8695 -12.2307 0.8722
-22.0048 -7.5993 -8.9214 0.9051
-15.6282 -7.0204 -6.5655 0.9292
-7.4334 -6.1503 -3.6973 0.9595
-5.2419 -6.2205 -3.1174 0.9658
-6.1505 -10.7204 -4.7364 0.9484
-3.4404 -9.6789 -3.9365 0.9570
-1.4694 -5.7106 -2.2597 0.9751
-0.4073 -5.6086 -2.1550 0.9762
0.5915 -5.5146 -2.1254 0.9765
1.0887 -5.4684 -2.1367 0.9764
1.5955 -5.4219 -2.1659 0.9761
2.1814 -5.5275 -2.2772 0.9749
2.5427 -5.0613 -2.1706 0.9760
3.1320 -4.1638 -1.9967 0.9779
3.5744 -3.3069 -1.8661 0.9794
3.8973 -2.4826 -1.7708 0.9804
4.1193 -1.6829 -1.7052 0.9811
4.2888 -0.5120 -1.6552 0.9817
4.3050 -0.1255 -1.6505 0.9817
4.3016 0.2607 -1.6515 0.9817
4.2355 1.0360 -1.6710 0.9815
3.9798 2.2204 -1.7464 0.9807
3.6914 3.0359 -1.8316 0.9797
3.0404 4.3177 -2.0237 0.9776
2.7525 4.7647 -2.1087 0.9767
2.4218 5.2231 -2.2063 0.9756
1.5215 5.8411 -2.3131 0.9745
0.4792 6.3375 -2.4356 0.9731
-2.3681 6.0533 -2.4909 0.9725
-2.9869 5.9897 -2.5649 0.9717
-3.6486 5.9211 -2.6653 0.9706
-5.1723 5.7610 -2.9670 0.9674
-6.0858 5.6639 -3.1860 0.9650
-13.0218 5.3651 -5.3972 0.9415
-21.4422 4.6031 -8.4043 0.9103
-33.0936 1.0632 -12.6886 0.8678
-32.9302 -1.8975 -12.6404 0.8682
3.9239 1.7767 -1.7629 0.9816
3.8165 2.1591 -1.7946 0.9812
3.3458 3.3355 -1.9336 0.9798
3.1324 3.7397 -1.9965 0.9791
2.8863 4.1509 -2.0692 0.9784
2.2808 4.9964 -2.2479 0.9765
1.4307 5.6293 -2.3772 0.9752
0.9602 5.9799 -2.4788 0.9742
-0.1263 6.2735 -2.5681 0.9732
-0.6856 6.2183 -2.5604 0.9733
-1.8162 6.1047 -2.6067 0.9728
-4.4164 5.8353 -2.9951 0.9689
-5.2241 5.7497 -3.1795 0.9670
-7.2227 5.5354 -3.7244 0.9614
-24.9902 2.9082 -10.2969 0.8970
-25.5637 0.6694 -10.4662 0.8954
-24.5520 -3.7904 -10.1676 0.8982
-11.9125 -6.6927 -5.5923 0.9427
-5.5398 -9.6559 -4.5561 0.9530
-3.1516 -8.8664 -3.8513 0.9601
-0.9264 -5.6624 -2.3482 0.9755
-0.4076 -5.6127 -2.3032 0.9760
0.0956 -5.5650 -2.2779 0.9762
1.0895 -5.4724 -2.2837 0.9762
1.5967 -5.4259 -2.3148 0.9759
3.2250 -3.5706 -1.9692 0.9794
3.4256 -3.1692 -1.9100 0.9800
3.7430 -2.3843 -1.8163 0.9810
3.9621 -1.6186 -1.7517 0.9817
4.0941 -0.8661 -1.7127 0.9821
4.1297 -0.4930 -1.7022 0.9822
4.1457 -0.1209 -1.6975 0.9822
4.1195 0.6235 -1.7052 0.9822
4.0770 0.9972 -1.7178 0.9820
3.8243 2.1337 -1.7923 0.9813
3.3588 3.3090 -1.9297 0.9798
3.1475 3.7127 -1.9921 0.9792
1.4665 5.6298 -2.3810 0.9752
0.9919 5.9516 -2.4694 0.9743
0.4788 6.3327 -2.5992 0.9729
-0.0892 6.2772 -2.5694 0.9732
-1.2086 6.1660 -2.5716 0.9732
-2.3663 6.0486 -2.6582 0.9723
-2.9845 5.9849 -2.7372 0.9715
-4.3661 5.8405 -2.9845 0.9690
-6.0797 5.6584 -3.3992 0.9647
-10.6822 5.5679 -4.9302 0.9493
-13.0042 5.3579 -5.7564 0.9410
-21.3972 4.5934 -8.9569 0.9097
-25.4438 -1.4662 -10.4308 0.8957
3.3880 2.8201 -1.9211 0.9809
2.4850 4.3613 -2.1876 0.9783
2.1724 4.7589 -2.2799 0.9774
1.8173 5.1612 -2.3847 0.9764
-0.1262 6.2687 -2.7326 0.9730
-1.2449 6.1575 -2.7379 0.9730
-2.4042 6.0397 -2.8331 0.9720
-3.0243 5.9757 -2.9188 0.9712
-4.4124 5.8300 -3.1865 0.9686
-9.0232 5.7104 -4.6538 0.9545
-10.8024 5.5493 -5.2928 0.9484
-16.5294 5.0264 -7.5295 0.9274
-18.4098 3.8380 -8.1958 0.9212
-20.3404 2.3671 -8.9245 0.9145
-20.7436 0.5432 -9.0435 0.9134
-20.0305 -3.0923 -8.8331 0.9154
-18.9874 -4.7038 -8.5252 0.9182
-17.6047 -6.0797 -8.1171 0.9219
-11.9312 -6.7032 -5.9643 0.9420
-7.4471 -6.1617 -4.2125 0.9587
-6.1160 -6.0612 -3.7527 0.9631
-4.6813 -6.6901 -3.5586 0.9650
-5.0309 -8.7689 -4.4059 0.9568
-3.9073 -8.4929 -4.0743 0.9600
-2.9033 -8.1681 -3.7780 0.9629
-0.9271 -5.6667 -2.5024 0.9753
0.5923 -5.5226 -2.4206 0.9761
3.7170 -1.9234 -1.8240 0.9819
3.9793 -0.4751 -1.7466 0.9827
3.9952 -0.1164 -1.7419 0.9827
3.9918 0.2420 -1.7429 0.9827
3.9271 0.9606 -1.7620 0.9825
3.8651 1.3220 -1.7803 0.9823
3.6780 2.0521 -1.8355 0.9818
3.5507 2.4217 -1.8731 0.9814
3.3989 2.7953 -1.9179 0.9810
3.2208 3.1730 -1.9704 0.9805
3.0142 3.5555 -2.0314 0.9799
2.7764 3.9428 -2.1016 0.9792
1.8422 5.1344 -2.3773 0.9765
1.4431 5.5403 -2.4951 0.9753
0.9375 5.6254 -2.4854 0.9754
-0.0891 6.2723 -2.7339 0.9730
-0.6482 6.2172 -2.7242 0.9731
-1.2077 6.1613 -2.7363 0.9730
-2.3644 6.0438 -2.8284 0.9721
-2.9821 5.9800 -2.9123 0.9713
-4.3622 5.8354 -3.1752 0.9687
-6.0736 5.6526 -3.6160 0.9644
-8.9202 5.7197 -4.6181 0.9548
-12.9864 5.3505 -6.1212 0.9406
-20.2964 2.4842 -8.9115 0.9146
-20.7325 0.6661 -9.0403 0.9135
-20.6595 -1.1905 -9.0187 0.9137
3.6365 1.6465 -1.8478 0.9826
2.6412 3.7985 -2.1415 0.9798
2.0719 4.5389 -2.3095 0.9782
1.3435 5.2859 -2.5245 0.9762
0.8929 5.5608 -2.6070 0.9755
-0.1217 6.0437 -2.7981 0.9737
-1.2439 6.1527 -2.9056 0.9727
-1.8133 6.0951 -2.9436 0.9724
-2.4022 6.0348 -3.0066 0.9718
-4.4084 5.8247 -3.3814 0.9683
-6.1323 5.6397 -3.8565 0.9639
-7.2065 5.5229 -4.2028 0.9608
-9.0136 5.7043 -4.9376 0.9541
-14.6406 4.4521 -7.0833 0.9348
-16.4393 3.4271 -7.7731 0.9287
-17.0962 1.9896 -7.9670 0.9269
-16.8633 -2.6034 -7.8983 0.9275
-16.0737 -3.9820 -7.6652 0.9296
-15.0136 -5.1848 -7.3523 0.9324
-13.7595 -6.1809 -6.9822 0.9357
-11.9504 -6.7139 -6.3449 0.9414
-6.1212 -6.0663 -3.9891 0.9627
-5.0435 -5.9850 -3.6229 0.9661
-4.2067 -7.3323 -3.9129 0.9634
-1.4729 -5.7241 -2.7359 0.9743
-0.4082 -5.6212 -2.6088 0.9755
0.0957 -5.5733 -2.5802 0.9757
1.5098 -5.1303 -2.4755 0.9767
2.2025 -4.3840 -2.2710 0.9786
2.7423 -3.6457 -2.1117 0.9801
2.9633 -3.2809 -2.0464 0.9807
3.4611 -2.2047 -1.8995 0.9821
3.8021 -0.8044 -1.7989 0.9830
3.8369 -0.4580 -1.7886 0.9831
3.8525 -0.1123 -1.7840 0.9832
3.8492 0.2333 -1.7850 0.9831
3.7854 0.9259 -1.8038 0.9830
2.6577 3.7741 -2.1367 0.9799
2.0931 4.5143 -2.3033 0.9783
1.7536 4.8874 -2.4035 0.9774
0.9269 5.5616 -2.6099 0.9755
-0.0855 6.0212 -2.7874 0.9738
-0.6476 6.2123 -2.8912 0.9728
-1.7751 6.0990 -2.9403 0.9724
-2.3624 6.0389 -3.0016 0.9718
-2.9796 5.9750 -3.0906 0.9710
-3.6394 5.9060 -3.2112 0.9699
-5.1577 5.7447 -3.5737 0.9665
-8.9108 5.7136 -4.8998 0.9544
-10.6568 5.5547 -5.5628 0.9484
-12.9682 5.3430 -6.4923 0.9401
-16.3845 3.5173 -7.7569 0.9288
-17.0632 2.0885 -7.9573 0.9270
3.2772 2.2638 -1.9538 0.9824
3.1296 2.6050 -1.9974 0.9820
2.9572 2.9481 -2.0483 0.9816
2.5304 3.6392 -2.1742 0.9804
2.2715 3.9866 -2.2506 0.9798
1.9786 4.3343 -2.3371 0.9790
1.6484 4.6814 -2.4345 0.9781
0.3844 5.5189 -2.7137 0.9757
-0.1148 5.6990 -2.7960 0.9749
-0.6607 5.9923 -2.9572 0.9735
-3.6817 5.8960 -3.4097 0.9695
-4.4043 5.8193 -3.5799 0.9680
-7.1982 5.5166 -4.4486 0.9604
-10.7761 5.5357 -5.9426 0.9475
-13.4269 4.0830 -6.8840 0.9394
-14.9382 0.3912 -7.3301 0.9356
-14.8757 -0.9458 -7.3116 0.9357
-14.5192 -2.2415 -7.2064 0.9366
-13.8963 -3.4426 -7.0226 0.9382
-13.0520 -4.5075 -6.7734 0.9403
-12.0410 -5.4089 -6.4749 0.9429
-10.9203 -6.1352 -6.1442 0.9457
-9.4588 -6.4927 -5.6277 0.9502
-2.4978 -7.0271 -3.6583 0.9673
-0.9286 -5.6756 -2.8210 0.9747
-0.4086 -5.6256 -2.7667 0.9752
1.7905 -4.5371 -2.3926 0.9785
2.1048 -4.1895 -2.2998 0.9793
2.3832 -3.8419 -2.2177 0.9801
2.6288 -3.4949 -2.1452 0.9807
2.8444 -3.1492 -2.0816 0.9813
3.0321 -2.8051 -2.0262 0.9818
3.4469 -1.7836 -1.9037 0.9829
3.5406 -1.4464 -1.8761 0.9831
3.6138 -1.1106 -1.8545 0.9833
3.6673 -0.7759 -1.8387 0.9834
3.7015 -0.4418 -1.8286 0.9835
3.7137 0.2251 -1.8250 0.9836
3.6917 0.5587 -1.8315 0.9835
3.6507 0.8930 -1.8436 0.9834
3.5904 1.2280 -1.8613 0.9832
3.4091 1.9020 -1.9149 0.9828
3.1401 2.5824 -1.9943 0.9820
2.9694 2.9253 -2.0447 0.9816
2.5464 3.6163 -2.1695 0.9805
2.2896 3.9635 -2.2453 0.9798
1.9990 4.3113 -2.3310 0.9791
1.6715 4.6585 -2.4277 0.9782
1.3034 5.0038 -2.5364 0.9772
-2.9770 5.9700 -3.2723 0.9707
-3.6362 5.9008 -3.3999 0.9696
-4.3542 5.8246 -3.5672 0.9681
-6.0609 5.6408 -4.0614 0.9638
-8.9012 5.7075 -5.1868 0.9540
-10.6438 5.5479 -5.8877 0.9479
-13.3064 4.1328 -6.8347 0.9398
-14.1421 3.0360 -7.0951 0.9376
-14.6761 1.7963 -7.2527 0.9362
-14.9318 0.4797 -7.3282 0.9356
3.1556 2.1799 -1.9897 0.9829
2.6481 3.1616 -2.1395 0.9816
2.4264 3.4896 -2.2049 0.9810
1.8914 4.1434 -2.3628 0.9797
1.5729 4.4670 -2.4568 0.9789
1.2165 4.7864 -2.5620 0.9780
0.3764 5.4035 -2.8100 0.9759
-0.1103 5.4735 -2.8401 0.9756
-1.1892 5.8820 -3.1132 0.9733
-1.8104 6.0852 -3.2936 0.9718
-4.4001 5.8138 -3.7825 0.9677
-9.5882 4.9256 -5.5921 0.9526
-11.8220 3.5950 -6.4103 0.9458
-12.4415 2.5938 -6.5932 0.9443
-12.8606 1.4967 -6.7169 0.9433
-13.0516 0.3418 -6.7732 0.9429
-13.0011 -0.8266 -6.7583 0.9430
-12.7126 -1.9625 -6.6732 0.9437
-11.5140 -3.9763 -6.3194 0.9466
-9.7402 -5.4722 -5.7959 0.9509
-8.7434 -6.0015 -5.5017 0.9533
-7.4689 -6.1797 -5.0291 0.9573
-4.3191 -6.1725 -3.9083 0.9666
-3.9086 -6.8127 -4.0747 0.9652
-2.3297 -6.5543 -3.6087 0.9691
-1.4753 -5.7335 -3.0713 0.9737
-0.9293 -5.6802 -2.9859 0.9744
0.0958 -5.5753 -2.8928 0.9752
0.9895 -4.9701 -2.6290 0.9774
1.7099 -4.3326 -2.4164 0.9792
2.0135 -4.0078 -2.3268 0.9800
2.2834 -3.6809 -2.2471 0.9807
2.7322 -3.0250 -2.1147 0.9818
3.3221 -1.7190 -1.9405 0.9833
3.4143 -1.3948 -1.9133 0.9835
3.5879 -0.1046 -1.8621 0.9840
3.5630 0.5393 -1.8694 0.9839
3.5227 0.8616 -1.8813 0.9838
3.3844 1.5083 -1.9222 0.9834
3.2850 1.8328 -1.9515 0.9832
3.1644 2.1583 -1.9871 0.9829
2.8543 2.8120 -2.0786 0.9821
2.4420 3.4679 -2.2003 0.9811
2.1926 3.7955 -2.2739 0.9804
1.5951 4.4457 -2.4503 0.9789
1.2413 4.7654 -2.5547 0.9781
0.8465 5.0790 -2.6712 0.9771
-0.0778 5.4746 -2.8404 0.9756
-0.5867 5.6277 -2.9353 0.9748
-2.9744 5.9648 -3.4578 0.9704
-3.6329 5.8955 -3.5925 0.9693
-4.3501 5.8191 -3.7692 0.9678
-5.1475 5.7333 -3.9972 0.9659
-9.5289 4.9668 -5.5746 0.9527
-10.6960 4.4069 -6.0014 0.9492
-12.4063 2.6633 -6.5828 0.9444
3.2587 1.4755 -1.9592 0.9838
2.5442 3.0375 -2.1701 0.9821
2.3284 3.3486 -2.2338 0.9816
2.0843 3.6580 -2.3059 0.9810
1.5024 4.2669 -2.4776 0.9796
0.7790 4.8514 -2.6912 0.9778
-0.5980 5.4237 -2.9886 0.9754
-1.6992 5.7115 -3.2637 0.9732
-3.6750 5.8853 -3.8002 0.9689
-5.1984 5.7214 -4.2339 0.9654
-6.1124 5.6214 -4.5483 0.9628
-6.9946 5.3605 -4.8266 0.9606
-7.8244 4.9517 -5.0715 0.9586
-9.8756 4.0004 -5.8358 0.9526
-10.5332 3.2031 -6.0300 0.9510
-11.0508 2.3038 -6.1827 0.9498
-11.3992 1.3266 -6.2855 0.9490
-11.5574 0.3026 -6.3322 0.9486
-11.2763 -1.7408 -6.2493 0.9493
-10.8544 -2.6890 -6.1247 0.9503
-10.2747 -3.5483 -5.9536 0.9516
-9.5685 -4.2983 -5.7452 0.9533
-6.1372 -6.0822 -4.7325 0.9614
-3.6266 -6.3211 -3.9915 0.9673
-2.8771 -6.2536 -3.7702 0.9691
-1.4765 -5.7384 -3.2453 0.9733
1.3069 -4.4407 -2.5354 0.9791
1.6345 -4.1416 -2.4387 0.9799
1.9279 -3.8373 -2.3521 0.9806
2.6262 -2.9077 -2.1459 0.9823
3.3648 -1.0341 -1.9280 0.9841
3.4166 -0.7228 -1.9127 0.9842
3.4498 -0.4118 -1.9029 0.9843
3.4403 0.5207 -1.9057 0.9843
3.3422 1.1432 -1.9346 0.9840
3.2646 1.4549 -1.9575 0.9838
3.1671 1.7670 -1.9863 0.9836
2.1014 3.6376 -2.3009 0.9810
1.8289 3.9443 -2.3813 0.9804
0.8054 4.8326 -2.6833 0.9779
-0.5656 5.4252 -2.9875 0.9754
